4.96, 5.06, 3.09, 3.08, 3.11, 3.02, 4.99, 5, 3.94, 5.08, 5.08, 5.09, 5.08, 5.17, 5.02, 5.56, 6.74, 8.44, 7.85, 7.74, 9.59, 10.48, 9.04, 9.04, 8.26, 8.09, 10.06, 10.29, 11.48, 12.13, 10.18, 11.31, 11.55, 11.03, 11.84, 11.84, 11.98, 11.12, 9.17, 10.67, 10.67, 10.89, 10.83, 10.15, 9.65, 8.49, 7.71, 7.83, 7.82, 7.45, 8.4, 6.68, 7.08, 7.07, 5.32, 3.93, 4.77, 3.14, 4.32, 3.86, 3.86, 4.71, 3.5, 5.15, 5.3, 5.32, 6.77, 6.69, 5.66, 5.43, 5.4, 5.28, 5.14, 5.43, 5.72, 5.7, 5.12, 5.07, 4.99
2.98, 2.57, 2.75, 2.92, 3.84, 3.91, 5.24, 4.32, 4.13, 4.59, 4.98, 5.84, 4.76, 5.94, 5.86, 6.18, 4.46, 8.23, 7.42, 5.93, 7.54, 8.23, 9.04, 9.19, 8.25, 8.05, 9.2, 9.77, 11.89, 12.5, 10.94, 10.76, 11.68, 10.35, 11.76, 12.32, 12.15, 13.49, 9.76, 10.75, 10.69, 11.31, 10.85, 9.86, 9.67, 9.11, 7.81, 6.97, 9.29, 9.89, 11, 10.82, 7.12, 7.02, 4.4, 5.81, 5.56, 3.24, 3.22, 2.46, 3.18, 3.93, 4.46, 5.18, 5.47, 3.78, 5.57, 4.31, 5.02, 5.22, 5.3, 5.34, 5.36, 5.59, 5.44, 6.73, 7.28, 5.18, 6.65
2.51, 1.16, 0.19, 1.8, 2.87, 4.17, 4.77, 4.95, 4.61, 4.18, 4.51, 4.63, 3.91, 3.27, 5.07, 5.63, 5.15, 7.4, 7.52, 6.97, 8, 8.46, 8.99, 9.14, 8.69, 8.75, 10.55, 9.87, 10.16, 12.08, 11.77, 11.25, 10.69, 10.84, 11.37, 11.46, 12.23, 13.4, 12.36, 11.58, 12.59, 11.74, 11.08, 9.44, 9.48, 9.46, 8.54, 8.31, 8.12, 9, 10.18, 9.22, 7.16, 6.71, 5.66, 6.21, 6, 4.61, 4.72, 3.6, 3.57, 4.12, 4.45, 4.77, 5.12, 6.21, 7.18, 4.97, 5.03, 4.3, 3.87, 4.48, 6.91, 7.04, 6.02, 6.38, 8.62, 6.9, 6.75
2.53, 0.12, 0.02, 2.59, 0.94, 2.56, 3.86, 4.42, 5.86, 4.11, 5.29, 6.74, 6.35, 3.34, 3.32, 3.32, 4.14, 6.55, 6.83, 6.94, 7.13, 7.1, 8.48, 7.58, 6.92, 6.78, 7.67, 8.45, 9.23, 9.74, 11.27, 11.35, 11.97, 10.81, 11.15, 11.8, 13.14, 14.2, 13.33, 12.41, 12.56, 12.33, 12.26, 10.28, 9.11, 9.1, 9.57, 9.22, 10.32, 10.14, 10.16, 9.69, 7.63, 7.48, 6.78, 6.3, 6.2, 5.44, 5.66, 4.58, 3.91, 3.14, 3.65, 5.89, 5.16, 4.79, 6.14, 5.58, 4.57, 2.78, 3.43, 5.5, 7.65, 5.88, 6.92, 6.65, 6.55, 6.99, 5.47
2.2, 1, 0.02, 1.26, 1.15, 1.51, 2.55, 4.66, 6.69, 5.83, 5.5, 6.91, 6.72, 5.02, 4.72, 3.98, 5.46, 6.06, 6.45, 6.73, 7.75, 6.39, 6.56, 7.2, 7.5, 7.8, 7.83, 9.57, 8.85, 9.43, 10.39, 10.32, 11.68, 12.03, 11.44, 10.39, 12.35, 13.17, 12.34, 12.44, 11.65, 13.85, 12.9, 11.68, 11.5, 10.41, 10.46, 10.39, 10.2, 11.1, 11.37, 10.32, 8.95, 8.16, 6.37, 4.86, 5.39, 7.18, 7.57, 6.07, 6.18, 6.36, 3.82, 4.1, 4.48, 4.62, 6.49, 5.76, 5.22, 4.5, 4.12, 4.78, 5, 5.2, 6.77, 6.66, 6.92, 8.6, 7.92
3.68, 0.85, 0.39, 1.11, 1.37, 3.09, 2.33, 3.17, 6.19, 6.82, 7.61, 5.88, 5.96, 5.54, 3.64, 4.52, 4.67, 6.67, 4.8, 6.58, 5.57, 7.24, 7.07, 7.4, 5.58, 8.02, 7.83, 7.3, 8.05, 9.84, 10.27, 9.2, 10.39, 10.77, 11.51, 11.11, 11.97, 13.73, 11.65, 12.07, 11.86, 14.01, 13.66, 12.48, 12.8, 11.21, 11.14, 10.43, 10.7, 11.26, 11.19, 10.34, 8.07, 7.45, 6.78, 5.93, 5.43, 5.34, 4.86, 3.88, 5.02, 5.99, 5.23, 4.51, 5.07, 4.74, 4.27, 5.4, 6.57, 4.25, 4.17, 4.44, 5.22, 5.17, 5.89, 6.04, 7.43, 6.66, 9.1
5, 1.4, 1.98, 3.28, 2.32, 3.46, 2.78, 3.1, 4.34, 7.36, 7.57, 7.61, 6.67, 6.17, 5.54, 4.73, 3.58, 6.84, 6, 6.11, 6.42, 6.27, 5.62, 6.48, 6.07, 7.65, 7.64, 8.04, 8.4, 10.69, 9.86, 9.17, 8.66, 9.59, 10.76, 10.59, 12.4, 13.36, 12.68, 12.28, 12.07, 14.03, 14.07, 13.28, 12.5, 11.68, 11.42, 9.48, 10.07, 10.53, 12.71, 12.7, 9.76, 8.61, 8.54, 7.92, 7.7, 5.95, 5.71, 3.42, 4.41, 4.29, 4.65, 4.35, 5.65, 5.93, 5.42, 5.4, 5.79, 5.02, 3.91, 4.18, 5.11, 4.3, 5.02, 5.52, 5.9, 6.27, 7.55
4.85, 1.89, 1.94, 2.71, 2.78, 1.91, 2.29, 4, 4.78, 6.5, 8.43, 7.7, 5.81, 4.45, 4.67, 5.86, 6.13, 7.54, 7.13, 6.39, 6.82, 6.6, 6.52, 6.59, 6.73, 6.55, 5.21, 7.45, 7.95, 9.38, 11.01, 9.96, 9.28, 8.72, 9.1, 9.92, 10.39, 11.3, 12.57, 11.55, 11.79, 11.26, 13.69, 14.38, 13.37, 12.87, 12.48, 11.52, 10.19, 9.52, 11.17, 11.85, 11.84, 10.72, 10.7, 9.28, 8.49, 7.95, 8.7, 5.79, 4.66, 4.51, 3.05, 4.34, 5.68, 5.33, 3.45, 2.76, 5.92, 4.3, 4.15, 5.58, 7.11, 4.61, 4.82, 5.93, 4.89, 4.16, 6.98
6.24, 4.07, 3.16, 2.96, 3.36, 2.56, 1.08, 2.54, 3.88, 5.26, 7.48, 6.61, 8.02, 6.47, 6.66, 6.77, 6.03, 6.36, 6.76, 6.02, 5.99, 5.91, 6.24, 4.51, 4.39, 4.04, 2.82, 5.09, 7.19, 7.65, 8.95, 11.2, 10.19, 11.21, 11.29, 10.65, 10.48, 10.87, 12.22, 11.85, 13.15, 10.52, 10.25, 10.94, 12.15, 10.86, 11.66, 10.8, 10.72, 11.82, 10.51, 10.35, 10.9, 10.81, 10.78, 11.46, 9.18, 7.66, 8.68, 8.29, 7.15, 6.45, 5.48, 4.12, 4.41, 6.72, 4.11, 2.68, 4.48, 6.22, 5.02, 5.26, 6.33, 6.42, 5.35, 6.24, 5.56, 4.83, 4.62
6.24, 5.7, 4.21, 2.01, 2.55, 1.75, 1.49, 3.01, 4.04, 4.08, 6.05, 6.37, 6.12, 5.81, 7.31, 7.22, 5.77, 4.12, 5.26, 4.75, 5.16, 4.56, 5.33, 6.69, 3.67, 4.46, 3.17, 3.32, 5.48, 6.65, 8.47, 10.1, 8.5, 10.48, 9.39, 9.26, 8.2, 9.53, 12.7, 13.03, 13.44, 12.19, 11.23, 11.06, 12.47, 11.7, 11.72, 11.74, 9.9, 10.19, 9.66, 11.4, 10.66, 9.92, 9.96, 10.72, 9.97, 9.43, 9.21, 8.05, 5.85, 6.27, 5.86, 4.98, 2.8, 5.04, 4.56, 1.64, 4.91, 5.6, 5.29, 4.13, 3.55, 5.44, 5.43, 5.43, 5.07, 4.86, 6.01
6.2, 5.79, 5, 3.5, 3.74, 1.95, 3.08, 3.79, 3.92, 3.26, 6.55, 7.08, 6.59, 4.8, 6.46, 6.97, 5.69, 6.62, 6.31, 5.53, 5.38, 6.47, 7.44, 8.62, 6.58, 5.26, 4.98, 2.27, 5.51, 6.31, 7.59, 9.83, 9.45, 10.66, 11.21, 9.83, 7.69, 7.01, 11, 11.09, 11.96, 13.47, 12.53, 11.84, 12.16, 13.1, 12.16, 11.79, 10.85, 10.09, 9.59, 12.44, 11.59, 11.35, 12.16, 11.29, 10.63, 9.73, 11.22, 8.83, 8.35, 8.47, 7.23, 6.11, 5.49, 5.31, 5.06, 2.26, 3.57, 3.5, 4.64, 2.58, 3.84, 3.75, 3.08, 3.88, 4.65, 4.94, 5.28
6.71, 8.18, 5, 3.5, 1.83, 1.42, 2.29, 3.02, 3.43, 2, 4.4, 5.75, 7.12, 5.98, 5.66, 6.06, 5.88, 4.35, 5.13, 6.17, 4.87, 4.89, 6.98, 9.44, 8.04, 5.23, 6.33, 5.78, 5.44, 5.69, 6.76, 9.99, 9.72, 10.18, 11.53, 10.68, 8.63, 6.54, 10.71, 11.03, 10.32, 13.15, 12.48, 11.91, 12, 12.55, 12.35, 12.33, 11.72, 10.75, 11.21, 11.77, 9.86, 11.35, 11.76, 12.64, 10.21, 10.38, 9.17, 9.13, 10.72, 9.59, 9.51, 6.76, 7.58, 5.1, 5.58, 3.86, 3.69, 2.85, 4.51, 3.51, 3.18, 3.76, 1.52, 2.71, 2.75, 4.02, 5.67
6.92, 7.78, 5.37, 6.29, 4.06, 2.63, 1.02, 3.14, 3.23, 3.85, 2.47, 3.78, 5.42, 6.81, 5.98, 5.13, 5.32, 3.55, 4.34, 5.26, 5.35, 4.76, 6.21, 8.41, 8.27, 6.54, 6.43, 4.66, 3.9, 4.49, 5.17, 7.34, 8.62, 9.36, 9.53, 8.54, 8.62, 7.38, 10.47, 11.64, 9.29, 12.42, 13.41, 12.44, 11.7, 13.07, 13.74, 12.66, 11.79, 11.43, 11, 13.1, 9.87, 8.83, 11.31, 12.49, 12.06, 11, 10.23, 9.91, 10.9, 8.32, 8.16, 7.23, 7.81, 5.55, 4.78, 4.39, 4.13, 2.57, 2.72, 3.76, 5.23, 4.55, 2.56, 2.65, 2.71, 5.35, 5.52
8.09, 9.62, 8.46, 7.37, 5.62, 3.38, 2.17, 2.67, 0.99, 2.25, 2.53, 1.29, 1.95, 5.99, 6.31, 5.76, 6.81, 6.16, 4.72, 5.48, 6.45, 6.37, 6.1, 9.18, 8.03, 8.15, 7.41, 5.71, 3.51, 2.77, 2.56, 4.09, 6.57, 8.85, 8.38, 8.77, 7.23, 6.84, 8.61, 10.15, 9.44, 10.6, 11.8, 12.46, 12.05, 12.54, 13.03, 14.8, 13.19, 12.04, 11.27, 12.16, 12.13, 11.73, 11.82, 12.33, 12.47, 13.62, 11.06, 12.2, 12.16, 9.78, 8.96, 9.18, 8.95, 7.32, 7.67, 6.46, 5.3, 4.46, 4.56, 3.57, 6.2, 4.53, 3.48, 5.06, 4.29, 6.08, 7.44
7.73, 6.86, 7.84, 8.9, 8.07, 6.24, 4.98, 2.25, 1.66, 1.88, 2.6, 0.91, 0.88, 2.06, 3.96, 6.78, 6.78, 5.59, 6.07, 6, 6.02, 4.45, 4.11, 5.72, 5.11, 6.91, 7.51, 6.75, 4.26, 2.89, 1.66, 2.81, 5.46, 5.51, 8.93, 9.62, 7.76, 7.3, 8.6, 8.38, 8.43, 9.16, 8.48, 10.84, 11.46, 11.55, 12.28, 13.66, 13.55, 12.42, 11.68, 11.68, 12.47, 11.92, 11.34, 11.98, 11.02, 11.52, 11.29, 11.88, 11.91, 10.77, 9.7, 8.97, 7.09, 8.35, 8.12, 7.29, 6.25, 4.51, 3.26, 3.42, 4.19, 4.71, 3.41, 2.77, 3.88, 6.5, 6.88
7.75, 7.56, 7.59, 7.74, 6.75, 6.56, 5.79, 3.77, 1.67, 1.51, 2.8, 1.86, 2.58, 2.51, 2.78, 3.7, 6.78, 6.42, 7.54, 8.74, 7.17, 4.78, 3.6, 3.01, 2.45, 4.75, 6.71, 6.09, 5.2, 3.99, 2.83, 1.19, 2.94, 3.34, 6.52, 8.24, 8, 7.64, 8.14, 8.26, 8.34, 8.01, 8.28, 8.83, 9.82, 10.3, 12.26, 12.21, 12.72, 13.88, 13.06, 11.56, 12.01, 13.43, 11.16, 11.57, 10.34, 11.03, 11.45, 11.85, 12.25, 10.44, 9.79, 9.32, 8.22, 8.33, 6.41, 6.59, 7.12, 5.85, 4.56, 3.85, 3.9, 3.97, 4.18, 5.27, 2.65, 4.64, 5.76
9.16, 8.41, 6.91, 5.37, 5.75, 6.16, 6.08, 4.19, 3.56, 2.28, 0.76, 2.53, 1.28, 3.09, 4.29, 4.09, 5.32, 4.56, 5.19, 6.96, 6.92, 4.85, 4.3, 3, 1, 3.78, 5.56, 5.31, 5.25, 3.45, 2.98, 2.37, 2.64, 1.99, 4.25, 4.86, 5.63, 6.71, 8.07, 7.17, 8.8, 7.46, 7.87, 8.43, 8.32, 9.18, 11.66, 13.62, 12.29, 13.09, 11.64, 11.6, 12.67, 11.48, 11.6, 10.06, 10.8, 11.95, 10.75, 10.5, 11.24, 11.24, 10.51, 9.55, 8.78, 8.67, 8.37, 7.17, 6.32, 5.18, 6.18, 4.84, 4.86, 2.94, 2.06, 3.75, 3.52, 4.53, 5.14
8.53, 8.5, 7.7, 6.27, 7.1, 6.6, 8.18, 5.91, 4.05, 2.06, 1.34, 1.29, 1.35, 2.24, 3.23, 4.16, 4.67, 4.17, 4.92, 4.16, 4.66, 4.72, 4.51, 4.01, 2.39, 3.08, 4.33, 4.76, 5.89, 3.8, 5.3, 3.92, 3.29, 2.82, 3.59, 5.51, 5.83, 5.14, 6.6, 6.98, 8.52, 8.28, 6.22, 7.87, 8.07, 7.42, 9.73, 11.8, 10.23, 11.75, 11.71, 11.3, 11.59, 12.84, 10.69, 10.06, 11.26, 11.03, 10.63, 11.73, 11.49, 10.75, 10.58, 10.25, 9.66, 9.18, 8.78, 9.01, 7.65, 6.81, 7.04, 6.89, 5.02, 2.58, 2.51, 3.76, 2.8, 3.18, 4.13
7.85, 8.14, 7.77, 7.03, 7.26, 6.97, 7.3, 5.11, 4.48, 3.27, 2.72, 2.47, 1.82, 1.89, 4.44, 4.2, 5.57, 3.2, 3.73, 4.93, 6.54, 5.64, 5.26, 4.3, 2.13, 2.48, 3.58, 2.72, 3.48, 3.65, 5.68, 6.11, 5.7, 5.91, 5.04, 6.65, 6.02, 6.39, 7.44, 7.83, 8.16, 9.1, 7.91, 7.88, 9.7, 7.64, 8.73, 8.76, 9.49, 10.7, 12.31, 10.22, 10.23, 11.57, 9.45, 8.75, 11, 12.03, 9.52, 10.89, 12.15, 12.32, 12.94, 10.18, 9.35, 8.71, 8.47, 7.41, 7.51, 5.25, 5.33, 6.27, 6.96, 5.15, 3.75, 4.03, 3.41, 1.87, 2.95
8.81, 8.83, 8.56, 6.7, 7.95, 6.44, 7.75, 6.28, 5.57, 4.79, 3.75, 2.98, 2.31, 3.88, 3.95, 4.14, 4.84, 4.01, 4.78, 6.2, 4.67, 6.82, 7.67, 6.35, 4.81, 1.87, 2, 0.43, 1.14, 2.87, 3.41, 4.77, 5.74, 6.09, 5.13, 5.18, 6.56, 6.49, 7.2, 7.31, 7.73, 8.48, 8.26, 8.13, 8.94, 7.88, 8.7, 8.73, 8.85, 9.9, 11.4, 10.52, 10.41, 11.81, 10.61, 8.48, 8.22, 11.76, 9.2, 10.36, 10.12, 11.68, 11.22, 12.45, 9.85, 9.15, 8.68, 8.03, 8.79, 7.44, 6.3, 7.67, 7.26, 5.47, 2.62, 3.33, 5.16, 3.61, 3.55
8.43, 9.42, 9.03, 7.89, 9.47, 9.71, 7.29, 6.79, 5.77, 6.01, 4.61, 4.32, 2.06, 2.94, 3.45, 3.76, 5.57, 4.69, 2.78, 4.56, 3.79, 4.92, 5.82, 5.33, 3.55, 2.75, 2.61, 1.05, 0.58, 1.73, 3.81, 3.26, 4.8, 7.22, 7.45, 5.06, 5.93, 6.23, 4.78, 6.05, 6.05, 7.76, 7.46, 6.55, 7.46, 9.41, 8.88, 8.84, 7.94, 9.89, 10.85, 10.58, 10.21, 11.61, 11.68, 9.99, 9.12, 10.54, 9.98, 9.22, 9.67, 11.4, 12.15, 13.57, 11.09, 10.31, 8.44, 8.14, 6.95, 6.67, 5.22, 7.25, 8.6, 8.25, 5.42, 5.3, 5.8, 5.61, 4.58
7.96, 8.81, 8.9, 8.31, 9.14, 9.23, 6.92, 6.66, 6.34, 6.21, 7.21, 5.73, 2.53, 2.22, 2.73, 4.14, 2.88, 3.15, 2.85, 3.7, 2.85, 3.4, 5.04, 5.97, 4.2, 3.79, 2.87, 2.48, 1.33, 2.8, 4.71, 3.89, 4.36, 5.7, 6.15, 3.73, 6.29, 6.27, 5.34, 6.32, 6.66, 8.95, 9.14, 7.99, 9.34, 8.28, 8.3, 8.98, 8.41, 10.94, 9.94, 10.19, 9.94, 12.53, 12.22, 10.51, 10.69, 11.13, 9.24, 8.53, 9.37, 10.9, 12.07, 13.82, 12.14, 10.88, 9.71, 8.81, 8.75, 7.13, 7.93, 8.02, 8.37, 8.56, 6.43, 5.89, 6.64, 5.71, 4.14
7.94, 7.64, 8.22, 7.71, 8.43, 8.03, 7.26, 5.75, 6.19, 6.2, 7.37, 5.82, 4.34, 3.28, 2.59, 3.21, 2.42, 1.1, 3.15, 2.83, 3.22, 2.82, 2.41, 4.23, 4.21, 4.44, 3.62, 4.57, 1.67, 0.85, 2.79, 3.34, 4.71, 4.28, 5.32, 4.12, 5.23, 5.77, 5.07, 5.91, 5.03, 6.47, 5.96, 5.26, 7.07, 7.45, 5.93, 7.31, 8.85, 8.71, 8.58, 8.28, 7.27, 8.98, 10.59, 10.69, 10.7, 10.53, 10.28, 8.56, 8.13, 8.31, 10, 12.35, 12.59, 11.79, 10.41, 9.9, 9.15, 8.15, 6.75, 7.15, 9.33, 8.77, 6.09, 5.99, 6.42, 5.21, 4.79
7.67, 8.26, 8.24, 9.42, 8.84, 8.85, 6.95, 7.91, 6.77, 4.71, 6.11, 4.71, 2.76, 2.33, 2.76, 2.7, 3.12, 0.23, 2.01, 2.85, 2.57, 2.18, 1.35, 3.27, 5.2, 4.72, 4.46, 4.98, 3.31, 3.8, 1.89, 2.47, 2.71, 3.46, 4.69, 4.21, 3.74, 6.61, 5.85, 6.68, 6.82, 7.29, 7.33, 7.2, 7.09, 7.24, 6.59, 6.94, 6.05, 6.68, 7.62, 7.78, 7.62, 7.03, 10.21, 10.85, 10.07, 10.34, 8.82, 9.96, 7.98, 10.02, 9.42, 10.51, 13.32, 14.53, 10.68, 9.37, 8.51, 9.17, 7.95, 9.14, 11.23, 10.66, 7.92, 7.03, 6.92, 6.69, 5.41
7.54, 8.14, 8.54, 8.41, 7.91, 8.9, 7.72, 8.97, 6.9, 5.26, 7.48, 6.73, 5.47, 2.86, 1.96, 1.09, 0.46, 1.45, 1.3, 3.67, 3.13, 0.69, 1.21, 3.62, 3.15, 3.91, 4.15, 4.89, 4.63, 4.24, 2.98, 1.37, 1.61, 0.84, 1.68, 2.41, 3.62, 4.96, 3.55, 5.3, 4.22, 4.92, 6.13, 8.3, 6.2, 6.73, 6.54, 7.88, 7.94, 8.8, 9.27, 10.42, 10.34, 9.44, 11.05, 9.9, 9.63, 9.09, 9.36, 10.04, 8.35, 9.26, 9.37, 9.93, 10.35, 11.37, 10.75, 9.96, 9.23, 8.69, 8.32, 8.74, 10.21, 10.24, 9.8, 7.85, 7.37, 7.17, 5.6
7.06, 6.63, 6.39, 7.28, 9.22, 7.3, 7.46, 6.23, 5.34, 3.31, 5.15, 6.38, 5.06, 5.12, 3.31, 2.29, 2.08, 1.17, 1.84, 3.38, 2.42, -0.01, 0.56, 1.78, 2.54, 3.09, 2.75, 2.03, 3.96, 5.08, 5.1, 5.06, 2.25, -0.04, 2.34, 1.56, 1.66, 2.46, 2.6, 5.39, 6.23, 5.34, 5.73, 5.38, 4.52, 7.3, 5.02, 7.89, 7.9, 9.14, 9.31, 9.98, 10.02, 9.5, 11.08, 9.52, 8.11, 7.66, 8.78, 9.93, 9.57, 8.64, 9.73, 9.87, 10.76, 10.97, 10.4, 10.38, 10.13, 9.46, 10.37, 8.64, 8.45, 11.31, 10.79, 9.97, 7.4, 7.48, 6.79
6.32, 6.48, 7.34, 7.66, 10.33, 10.22, 9.77, 8.26, 7.73, 3.88, 3.32, 3.57, 4.51, 4.86, 3.85, 4.22, 3.68, 3.12, 0.89, 4.1, 2.16, 0.59, 2.49, 2.15, 2.27, 3.01, 3.97, 4.98, 5.39, 5.51, 6.51, 5.87, 4.06, 1.83, 2.11, 2.85, 0.94, 2.75, 3.52, 4.69, 4.42, 4.45, 3.14, 6.02, 6.09, 6.69, 4.55, 8.14, 9.77, 9.52, 9.32, 10.78, 10.86, 11.15, 11.06, 10.13, 9.38, 8.56, 8.5, 9.91, 9.84, 8.91, 10.22, 11.01, 10.94, 11.92, 11.49, 11.57, 11.4, 9.54, 9.34, 8.55, 8.78, 8.65, 7.81, 9.86, 8.42, 8.65, 6.92
4.51, 5.41, 6.03, 7.75, 9.96, 10.09, 8.01, 8.44, 8.18, 5.94, 4.64, 3.16, 4.84, 4.85, 4.69, 2.71, 3.19, 3.17, 3.56, 2.09, 2.85, 1.6, 2.13, 1.64, 2.43, 2.8, 3.16, 3.98, 4.83, 5.35, 6.22, 6.08, 6.68, 4.6, 3.48, 3.97, 0.69, 1.15, 2.84, 3.62, 4.09, 4.49, 2.53, 5.21, 5.65, 5.79, 5.05, 7.48, 9.57, 9.52, 9.44, 10.13, 10.56, 9.64, 12.22, 11.89, 10.2, 9.95, 9.77, 11.4, 10.82, 8.77, 9.37, 10.55, 11.24, 12.23, 11.19, 11.36, 12.08, 10.46, 10.28, 8.73, 9.07, 7.95, 8.78, 9.22, 7.9, 6.71, 6.82
3.35, 4.36, 4.28, 6.31, 8.13, 9.11, 8.58, 8.54, 8.48, 7.36, 4.53, 2.49, 3.67, 3.63, 4.02, 3.43, 3.69, 5.33, 4.38, 1.84, 3.24, 1.02, 1.61, 0.05, 1.24, 1.96, 0.69, 0.38, 4.08, 2.78, 5.26, 5.98, 6.24, 4.57, 4.02, 4.36, 4.41, 2.78, 3.45, 3.49, 3, 3.44, 1.04, 1.56, 4.75, 3.72, 4.71, 7.33, 8.68, 9.11, 10.99, 10.64, 9.76, 9.68, 11.13, 10.83, 11.43, 10.13, 9.28, 8.85, 9.98, 8.67, 8.52, 9.13, 10.17, 12.42, 11.35, 10.73, 11.44, 11.54, 12.89, 12.14, 10.72, 10.27, 9.57, 9.36, 8.66, 6.67, 4.95
3.36, 5.35, 4.82, 5.55, 8.24, 6.89, 7.78, 7.27, 7.85, 8.64, 8.43, 5.75, 4.75, 4.26, 4.55, 3.59, 3.6, 5.16, 3.47, 3.85, 2.27, 0.58, 2.94, 1.24, 1.67, 0.37, -0.38, 0, 1.96, 1.47, 2.09, 3.42, 4.84, 4.52, 4.39, 4.67, 5.55, 5.82, 4.55, 3.33, 3.26, 3.42, 1.34, 1.93, 3.33, 2.37, 3.02, 5.17, 6, 7.53, 8.93, 9.79, 10.37, 10.57, 10.63, 10.73, 10.02, 10.17, 9.59, 10.06, 9.85, 11.03, 11.57, 10, 11.58, 12, 11.65, 11.19, 9.8, 12.56, 13.7, 13.56, 12.42, 10.17, 9.84, 9.62, 7.97, 5.72, 5.03
3.22, 3.78, 5.99, 5.62, 5.36, 6.04, 6.91, 7.1, 7.52, 6.68, 7.06, 6.37, 5.7, 4.57, 4.56, 3.55, 4.06, 3.86, 3.79, 5.07, 3.2, 0.34, 1.65, 1.42, 2.23, 1.28, 0.39, 1.1, 0.98, -0.33, 1.09, 2.18, 2.21, 1.95, 3.27, 4.82, 3.94, 3.91, 4.41, 3.86, 2.8, 1.79, 0.48, -0.27, 1.53, 3.21, 4.02, 5.01, 7.38, 8.27, 10.38, 10.09, 10.32, 9.89, 9.73, 10.45, 10.06, 9.45, 9.51, 9.97, 10.11, 10.4, 12.79, 9.7, 9.92, 10.69, 11.17, 11.76, 10.83, 9.87, 12.69, 14.31, 14.22, 11.51, 10.67, 10.73, 8.78, 6.57, 6.31
3.01, 2.69, 3.81, 6.57, 4.71, 6.87, 4.96, 6.02, 8.53, 8.85, 8.63, 7.57, 6.58, 4.97, 3.04, 2.62, 3.14, 3.51, 2.86, 3.86, 4.61, 2.42, 1.71, 1.33, 0.23, 0.74, 1.28, 1.29, 1.27, 0.41, 2.28, 3.99, 3.71, 3.21, 3.24, 4.45, 3.96, 5.4, 6.3, 5.2, 2.24, 1.43, 2.68, 0.59, 1.03, 2.25, 3.19, 3.65, 4.08, 7.79, 10.47, 9.9, 8.15, 8.13, 8.92, 9.69, 8.9, 9.36, 7.45, 10.13, 10.07, 10.74, 11.94, 10.44, 12.06, 9.58, 11.76, 11.75, 10.42, 9.66, 9.52, 12.15, 13.22, 14.32, 13.45, 12.01, 10.99, 9.35, 7.91
2.8, 2.74, 3.21, 5.35, 4.06, 5.38, 5.2, 3.76, 6.15, 8.45, 9.49, 9.76, 7.3, 6.56, 6.44, 4.53, 3.83, 3.6, 3.54, 3.79, 4.3, 3.36, 3.49, 1.72, 0.6, 2.12, 1.68, -0.23, 0.89, 1.51, 3.66, 4.82, 4.29, 3.75, 4.21, 4.33, 4.73, 4.4, 5.94, 4.13, 2.25, 1.87, 2.27, 1.48, 1.28, 3.19, 1.43, 2.54, 1.97, 5.92, 8.86, 10.72, 9.4, 8.66, 10.15, 8.25, 9.44, 9.51, 9.77, 11.01, 9.33, 11.85, 10.49, 9.89, 9.89, 9.49, 10.53, 10.71, 10.46, 10.85, 10.19, 9.88, 10.23, 12.17, 12.8, 12.89, 12.47, 8.99, 9.09
1.43, 3.5, 4.16, 5.09, 4.72, 5, 4.2, 3.78, 6.46, 8.22, 8.85, 7.7, 7.56, 5.82, 4.88, 4.68, 3.53, 3.99, 2.34, 3.02, 1.85, 2.62, 3.11, 2.03, 0.68, 3.32, 3.08, -0.15, 0.4, -0.37, 2.79, 5.14, 5.13, 4.01, 5.99, 5.24, 3.59, 4.82, 5.05, 4.59, 3.49, 1.02, 1.33, 2.59, 1.63, 1.92, 1.59, 1.56, 1.46, 3.6, 5.66, 8.21, 8.66, 8.61, 9.16, 8.71, 9.76, 8.3, 9.03, 9.52, 9.44, 12.64, 11.65, 11.59, 12.2, 10.42, 10.48, 9.76, 9.3, 10.07, 12, 10.76, 10.5, 12.13, 12.25, 14.52, 14.43, 11.84, 10.46
-0.45, 1.04, 2.81, 4.61, 6.13, 7.52, 6.17, 4.58, 5.26, 7.31, 9.75, 8.48, 7.77, 7.61, 5.67, 5.6, 4.55, 4.58, 2.27, 2.79, 1.1, 3, 3.73, 2.87, 1.37, 2.88, 2.93, 1.27, -0.91, -0.61, 1.08, 3.25, 3.86, 4.64, 5.99, 6.05, 4.92, 6.35, 7.1, 6.33, 5.1, 3.03, 2.98, 4, 2.71, 0.93, 0.97, 1.82, -0.16, 1.98, 3.81, 6.38, 9.44, 8.42, 9.39, 8.95, 7.63, 7.16, 6.52, 8.03, 8.88, 9.8, 9.29, 10.91, 11.21, 11.94, 11.32, 9.71, 9.42, 9.77, 10.93, 10.88, 10.67, 11.76, 11.06, 14.37, 16.28, 13.92, 11.76
0.17, 0.66, 0.45, 1.25, 3.72, 4.44, 5.41, 4.98, 5.76, 5.32, 7.5, 8.95, 8.28, 8.02, 8.2, 5.95, 4.31, 4.08, 1.85, 3.46, 3.82, 3.13, 3.35, 1.64, 2.48, 2.69, 2.54, 1.91, 0.56, -0.44, 0.46, 2.6, 3.07, 2.56, 4.3, 5.02, 3.16, 4.72, 3.95, 4.94, 5.46, 4.4, 3.2, 3.57, 5.06, 2.99, 1.98, 1.57, 0.71, 1.4, 2.92, 4.75, 6.4, 6.66, 8.22, 9.24, 8.21, 7.68, 7.68, 7.85, 8.4, 8.99, 7.97, 9.44, 9.33, 10.32, 10.81, 11, 9.44, 9.34, 10.67, 9.06, 9.69, 12.1, 11.73, 12.51, 13.12, 14.79, 13.62
-1.4, 1.46, 0.34, 0.73, 3.69, 2.64, 2.77, 4.05, 4.08, 5.53, 8.36, 8.49, 8.7, 8.99, 8.34, 7.83, 6.4, 5.44, 4.23, 4.05, 4.03, 3.74, 2.45, 1.97, 2.2, 2.71, 2.69, 2.3, 1.36, 1.06, -0.13, 1.24, 1.88, 1.01, 1.36, 3.19, 4.96, 4.08, 3.77, 3.31, 3.85, 2.56, 1.89, 3.43, 5.04, 3.03, 2.5, 2.03, 0.02, 1.23, 1.88, 4.01, 5.08, 5.18, 8.57, 8.93, 7.38, 7.74, 7.9, 7.86, 8.58, 9.32, 9.64, 9.54, 11.12, 10.85, 9.21, 8.16, 8.14, 7.28, 8.55, 10.27, 11.03, 11.72, 11.77, 13.17, 12.81, 13.72, 14.24
-1.65, -0.23, -0.15, -0.62, 3.07, 2.99, 1.17, 2.63, 1.89, 3.73, 6.16, 6.39, 7.35, 6.64, 7.9, 9.3, 9.6, 7.6, 5.88, 4.96, 4.49, 4.12, 2.73, 3.08, 3.84, 3.05, 3.01, 2.35, 1.11, 2.39, 0.63, -0.38, 2.29, 3.34, 4.03, 4.2, 4.6, 5.62, 3.62, 2.41, 1.9, 2.98, 2.71, 2.81, 4.54, 1.96, 1.67, 3.77, 2.75, 2.89, 2.68, 2.41, 3.81, 6.43, 9.17, 8.6, 8.15, 7.9, 6.98, 6.15, 7.52, 8.78, 8.54, 10.98, 10.23, 10.57, 10.31, 8.45, 7.6, 8.04, 9.54, 10.09, 10.03, 12.29, 13.84, 13.51, 13.17, 14.21, 14.31
-3.4, -0.42, -0.28, 0.03, 1.55, 2.33, 0.93, 1.21, 1.75, 2.44, 3.96, 4.51, 5.93, 6.29, 8.28, 8.88, 11.08, 10.33, 9.13, 6.03, 5.67, 4.46, 4.23, 3.68, 3.76, 3.28, 3.32, 3.08, 2.17, 0.48, 1.94, -0.68, 0.69, 2.02, 3.76, 4.54, 6, 5.81, 3.91, 2.22, 0.84, 2.45, 1.75, 1.45, 2.53, 1.53, 3.04, 4.2, 3.47, 3.13, 1.13, 1.73, 2.96, 4.6, 7.85, 9.97, 10.67, 9.51, 8.59, 6.92, 7.9, 8.12, 8.28, 8.73, 9.66, 9.65, 9.98, 9.18, 8.35, 8.99, 7.49, 9.39, 9.79, 11.15, 12.36, 12.91, 11.53, 11.73, 14.88
-2.12, -1.26, -0.78, -0.14, 2.56, 3.54, 1.88, 1.71, 1.69, 2.18, 3.22, 3.92, 2.98, 4.32, 6.65, 8.47, 9.23, 9.8, 10.93, 8.4, 7.22, 6.64, 5.32, 5.35, 3.17, 1.48, 0.72, 2.21, 1.08, 2.7, 3.59, 1.35, 2.84, 2.65, 3.21, 2.88, 4.46, 5.42, 2.95, 3.01, 1.27, 1.3, 1.52, 1.48, 2.02, -0.15, -0.54, 1.2, 2.55, 1.77, 1.46, 0.08, 2.26, 3.2, 7.17, 7.74, 7.56, 8.39, 8.08, 9.39, 7.67, 9.37, 8.15, 8.49, 8.87, 8.96, 10.58, 10.37, 8.66, 8.32, 6.58, 7.77, 10.39, 11.45, 11.89, 10.89, 12.08, 13.11, 12.54
-2.37, -1.06, 0.09, -0.2, 1.72, 0.97, 0.32, 1.79, 3.69, 1.77, 3.28, 4.39, 2.82, 3.5, 5.88, 7.26, 8.24, 8.37, 8.83, 8.41, 7.84, 7.32, 7.25, 6.76, 5.65, 1.8, 1.16, 2.71, 0.73, 3.45, 2.62, 3.01, 1.9, 1.96, 3.36, 3.13, 3.55, 4.24, 4.51, 5.35, 4.07, 3.38, 0.91, 1.36, 2.25, 1.29, 0.55, 2.16, 0.97, -0.41, 0.69, 0.38, -0.17, 2.65, 4.91, 6.37, 7.01, 5.72, 6.34, 9.22, 8.47, 10.79, 9.41, 9.39, 8.66, 8.69, 9.64, 10.96, 10.22, 10.64, 8.36, 8.7, 10.28, 10.46, 12.18, 11.96, 11.12, 12.17, 12.35
-2.96, -3.02, -1.07, -0.34, 1.86, 1.28, -0.21, 0.71, 2.34, 1.96, 2.76, 3.57, 4.96, 2.61, 4.77, 5.61, 6.16, 6.51, 5.71, 8.72, 8.8, 9.3, 8.26, 5.8, 6.47, 4.13, 2.81, 1.08, 1.16, 2.36, 3.73, 2.97, 2.42, 1.09, 2.54, 2.8, 1.73, 3.62, 2.69, 4.02, 2.34, 4.24, 1.78, 3.21, 2.48, 1.87, 1.2, 1.7, 1.41, -0.85, -0.81, -0.21, -0.53, 1.67, 3, 4.26, 6.23, 5.07, 5.68, 7.06, 7.71, 9.24, 10.22, 11.56, 10.24, 9.11, 9.2, 8.13, 9.49, 10.67, 10, 9.17, 11.22, 12.32, 13.07, 12.92, 12.17, 13.6, 13.3
-3.5, -3.29, -3.14, -3.27, 1.06, 0.48, -1.65, 1.27, 1.2, 0.41, 1.67, 1.11, 1.42, 2.62, 5.09, 5.28, 5.72, 7.35, 6.1, 7.56, 8.25, 7.13, 6, 4.59, 4.32, 4.33, 2.37, 0.52, 2.18, 2.24, 1.61, 1.76, 1.88, 1.57, 1.81, 1.99, 3.6, 5.04, 5.54, 4.26, 2.34, 1.54, 1.83, 3.43, 2.16, 2.02, 1.36, 1.51, -0.54, -0.69, -0.83, 1.32, 0.39, 2.03, 1.96, 2.7, 4.53, 5.3, 5.39, 6.26, 7.42, 9.96, 10.09, 11.87, 12.19, 9.69, 9.93, 8.85, 9.02, 9.51, 11.16, 10.2, 12.59, 13.18, 12.46, 13.96, 12.81, 13.4, 13.07
-3.59, -3.07, -3.04, -3.46, -2.5, -1.22, -1.23, 0.94, 2.84, 1.3, -0.37, 0.37, 0.74, 1.68, 3.37, 4.67, 5.19, 5.66, 6.89, 6.58, 7.46, 5.53, 5.44, 5.08, 4.6, 4.65, 3.38, 1.94, 1.79, 2.68, 3.04, 4.21, 3.05, 2.31, 2.46, 2.38, 3.04, 3.96, 4.99, 5.32, 3.82, 3.3, 4.34, 3.6, 2.81, 1.57, 1.8, 2.83, -0.83, -0.73, -1.2, 0.31, 0.33, 0.81, 0.05, 1.37, 4.38, 3.43, 4.41, 4.58, 5.81, 6.34, 8.21, 10.65, 11.5, 10.6, 11.38, 10.33, 11.19, 11.11, 10.82, 10.42, 11.48, 12.7, 11.27, 13.12, 14.15, 13.44, 13.15
-4.77, -2.65, -2.86, -3.16, -1.7, -1.02, -1.78, -1.21, -0.47, 1.68, 0.73, 1.19, 1.93, 1.77, 2.64, 4.09, 5.73, 6.06, 5.2, 3.95, 5.67, 5.28, 5.4, 4.1, 4.38, 4.49, 3.08, 4.05, 3.46, 2.96, 3, 5.22, 4.65, 3.52, 2.19, 2.19, 2.73, 2.59, 3.37, 5.6, 4.74, 3.97, 3.16, 3.28, 4.77, 3.17, 2.6, 2.71, 0.92, 1.91, 1.65, -0.33, 0.56, 2.46, 2.8, 1.97, 3.17, 3.28, 3.14, 3.76, 5.05, 7.1, 7.64, 9.13, 9.19, 9.9, 10.59, 8.66, 8.35, 11.39, 10.87, 10.38, 11.39, 13.55, 13.24, 14.41, 14.41, 14, 13.62
-5.05, -4.83, -3.8, -4.27, -2.85, -1.37, -1.97, -2.19, -2.87, -0.04, -0.02, 0.24, -0.32, 0.32, 0.41, 2.25, 5.9, 6.06, 5.72, 4.9, 4.55, 4.69, 5.15, 4.52, 4.47, 3.03, 3.36, 3.26, 1.97, 1.7, 2.28, 4.31, 3.23, 3.37, 2.92, 2.57, 4.09, 1.35, 2.31, 3.94, 2.91, 3.63, 4.05, 2.85, 4.34, 5.13, 3.72, 2.65, 2.75, 2.45, 2.91, 1.28, 2.39, 2.61, 2.11, 1.87, 2.37, 2.73, 4.56, 4.3, 6.15, 8.41, 8.02, 9.63, 9.56, 10.25, 10.38, 8.98, 8.66, 11.74, 10.62, 8.93, 9.75, 12.3, 11.17, 13.28, 13.73, 12.35, 14.35
-4.92, -4.84, -4.12, -3.06, -2.76, -3.78, -0.9, -0.21, -1.34, 0.26, 0.13, 1.11, 1.81, 1.09, 1.08, 1.17, 3.66, 3.15, 3.76, 5.41, 5.47, 5.09, 6.73, 6.07, 5.31, 4.17, 3.45, 2.89, 0.71, 2.28, 0.89, 2.71, 2.64, 1.4, 0.57, -0.3, 1.91, 1.55, 1.18, 2.56, 2.51, 3.43, 2.55, 2.7, 3.52, 4.02, 3.71, 3.16, 3.61, 2.89, 1.45, 2.6, 3.54, 5.03, 1.84, 3.37, 2.97, 2.79, 4.86, 5.67, 6.31, 6.99, 7.53, 8.58, 9.89, 9.14, 10.89, 9.82, 10.07, 8.93, 9.38, 9.23, 8.84, 10.61, 10.9, 11.53, 11.3, 9.97, 11.49
-5.43, -6.12, -5.12, -3.48, -3.07, -3.11, -0.86, 0.01, -1.22, 0.21, 1.72, 0.96, 2.65, 2.15, 1.5, 0.52, 0.96, 2.19, 2.73, 3.76, 4.75, 5.12, 5.81, 7.75, 5.97, 6.24, 5.32, 4.52, 1.81, 1.8, 2.21, 3.12, 0.95, 1.16, 1.9, 0.56, 0.37, 0.71, 1.14, 1.89, 4.14, 3.77, 4.13, 4.33, 2.46, 3.11, 1.6, 1.88, 2.81, 2.28, 1.89, 3.64, 4.81, 4.79, 2.58, 3.68, 3.38, 3.1, 2.62, 4.14, 4.61, 5.11, 6.02, 7.15, 6.8, 9.76, 9.96, 9.43, 7.81, 8.15, 9.2, 9.28, 10.21, 8.94, 10.03, 11.31, 10.56, 10.67, 9.39
-6.42, -6.13, -5.59, -4.24, -3.78, -3.29, -0.62, -0.27, 0.51, 0.33, 1.76, 0.95, 1.78, 1.45, 1.46, 1.94, 2.07, 3.14, 4.53, 4.62, 4.73, 5.15, 7.13, 8.74, 8.06, 7.61, 7.42, 7.46, 4.63, 4.59, 3.39, 1.94, 1.69, 1.42, 0.03, -1.52, -0.17, 1.93, 2, 1.88, 3.43, 2.8, 2.56, 5.38, 3.07, 4.52, 4.07, 3.51, 3.15, 2.26, 1.4, 0.53, 1.35, 3.06, 1.01, 2.26, 2.82, 2.63, 2.07, 2.76, 2.9, 4.95, 5.13, 6.72, 6.76, 7.3, 8.68, 10.62, 8.47, 7.78, 8.52, 10.01, 8.78, 7.87, 8.85, 10.51, 9.18, 9.03, 7.98
-7.68, -7.86, -6.78, -5.15, -4.57, -4.4, -4.01, -0.26, 0.13, -0.51, 0.63, 0.21, 1.73, 1.17, 1.66, 1.89, 1.89, 2.83, 4.82, 5.54, 5.16, 5.26, 7.68, 8.15, 8.82, 8.34, 8.65, 8.06, 6.34, 4.66, 3.37, 2.04, 3.55, 2.4, -0.14, -0.93, -0.49, 0.72, 2.44, 2.38, 1.68, 2.8, 1.95, 3.67, 3, 2.11, 2.97, 3.28, 3.39, 1.96, 2.39, 1.82, 0.78, 2.83, 2.61, 2.35, 2.64, 2.27, 3.36, 4.27, 4.83, 3.11, 4.15, 7.2, 5.87, 8.27, 8.29, 9.54, 10.26, 10.76, 8.71, 11.32, 10.17, 9, 8.93, 9.72, 9.44, 9.36, 7.21
-8.53, -8.16, -9.41, -9, -5.6, -5.79, -4.26, -2.27, -2.61, -2.38, -0.91, 1.15, 2.53, 1.93, 0.44, 1.16, 1.56, 1.68, 3.6, 4.78, 5.85, 5.55, 7.83, 7.89, 8.48, 8.51, 8.37, 6.48, 7.71, 6.11, 4.69, 3.85, 2.33, 2.56, 1.39, -1.12, -0.86, -1.04, 0.8, 0.47, 2.17, 2.74, 0.4, 3.71, 2.05, 2.49, 2.11, 2.21, 2.43, 1.88, 2, 0.21, 0.49, 0.92, 3.05, 0.92, 0.34, 1.14, 4.08, 4.84, 5.29, 4.2, 3.94, 6.22, 5.52, 8.06, 8.05, 7.1, 8.69, 11.65, 11.08, 9.81, 9.67, 11.22, 10.07, 10.2, 11.52, 12.1, 9.93
-8.75, -7.91, -9.98, -11.38, -10.15, -7.95, -6.14, -3.66, -1.6, -0.57, -1.37, -0.11, -0.24, 2.69, 0.29, 0.32, -0.97, 1.61, 2.88, 2.62, 4.22, 4.6, 5.82, 6.78, 7.3, 6.03, 6.11, 5.98, 4.92, 7.11, 5.42, 4.99, 3.66, 1.25, 1.46, 0.37, -0.27, -2.11, 0.27, 1.04, 1.61, 2.54, 1.09, 3.12, 3.55, 4.99, 3.55, 4.46, 4.57, 3.63, 2.79, 1.51, -0.71, -1.58, 0.09, 0.23, -1.4, 0.62, 3.36, 4.11, 4.65, 4.65, 3.67, 6.63, 6.73, 8.21, 8.15, 8.54, 9.23, 9.63, 9.84, 11.79, 11, 12.92, 10.89, 10.67, 12.37, 12.8, 12.73
-7.94, -7.91, -7.95, -9.39, -10, -8.59, -7.55, -5.5, -3.53, -1.71, -1.59, -0.37, 0.01, 2.16, 1.22, 1.03, 0.03, 0.67, 1.98, 1.54, 3.08, 3.93, 5.34, 5.03, 5.29, 6.74, 6.26, 5.81, 3.39, 4.59, 5.01, 4.39, 3.12, 1.06, -0.23, 0.29, -0.09, -1.32, 0.71, 1.41, 2.89, 2.73, 2.46, 3.74, 4.4, 4.64, 2.25, 3.51, 3.92, 3.65, 3.22, 2.49, -0.43, -1.46, -2.12, -1.46, -0.74, 0.15, 2.32, 2.59, 4.81, 5.68, 3, 5.55, 7.49, 7.87, 7.81, 7.48, 8.5, 9.06, 9.52, 12.64, 12.27, 11.79, 11.38, 11.08, 11.06, 11.81, 11.21
-7.98, -7.31, -7.9, -6.92, -8.49, -8.27, -8.03, -7.58, -6.91, -5.98, -4.11, -1.77, -1.66, 0.7, 0.95, 0.87, 1.39, -0.35, -0.43, 0.59, 2.67, 4.06, 3.89, 3.93, 2.91, 5.18, 5.81, 3.92, 3.75, 4.15, 3.5, 2.71, 4.35, 2.6, 1.1, 0.35, 0.09, -0.17, 0.91, -0.71, 0.5, 2.4, 1.59, 2.53, 1.76, 3.24, 3.03, 3.27, 4.98, 5.28, 2.26, 4.09, -0.01, -2.15, -2.18, -3.53, -0.16, -1.17, -0.56, 1.33, 2.26, 4.33, 3.7, 2.73, 5.1, 8.3, 7.93, 7.37, 8.28, 9.77, 9.28, 12.69, 12.83, 13.71, 12.55, 12.34, 11.64, 11.74, 10.38
-7.95, -7.61, -7.75, -7.23, -7.86, -8.22, -6.23, -6.66, -6.83, -6.31, -5.6, -4.8, -3.35, -2.29, -1.98, -0.52, -0.38, -0.85, -0.16, 0.28, 0.97, 1.08, 2.83, 4.32, 3.3, 6.09, 5.18, 3.78, 4.55, 4.52, 3.89, 3.33, 4.64, 4.73, 3.06, 1.5, 0.64, 0.3, 0.96, 1.61, 2.14, 0.97, 1.22, 3.64, 1.63, 3.53, 4.02, 2.54, 4.02, 5.04, 1.9, 2.54, 1.27, -0.71, 0.06, -0.44, 1.53, -1.23, -0.8, -0.76, -0.46, 0.35, 2.14, 3.27, 4.66, 5.75, 6.73, 7.84, 7.63, 8.39, 8.86, 9.74, 11.7, 13.72, 11.98, 12.29, 11.85, 13.49, 11.87
-8.55, -8.07, -9.53, -8.39, -7.09, -7.67, -5.55, -6.27, -6.55, -6.05, -6.44, -3.85, -5.27, -3.37, -2.58, -1.43, -0.4, -0.71, -0.76, 0.6, 0.78, 0.94, 3.12, 2.99, 3.45, 4.92, 4.82, 5.98, 4.86, 5.91, 3.89, 3.64, 3.52, 5.01, 3.26, 3.83, 2.9, 0.3, 0.34, -0.94, 0.21, 0.02, 1.49, 2.04, 1.82, 2.07, 3.88, 4.64, 2.34, 3.95, 4.65, 2.3, 1.82, 0.53, -0.3, -0.61, 0.25, -0.15, 0.24, -0.29, 0.71, -0.62, 1.83, 4.34, 4.5, 4.74, 4.86, 6.65, 7.04, 7.73, 7.92, 9.55, 10.59, 10.93, 11.16, 11.56, 11.65, 11.28, 11.58
-8.71, -9.47, -9.13, -8.76, -6.74, -7.19, -6.8, -7.76, -6.49, -7.96, -7.2, -3.66, -4.15, -4.58, -5.31, -2.56, -0.59, -0.64, -0.82, 0.67, 1.36, 1.4, 2.29, 1.67, 2.34, 2.41, 4.09, 5.89, 5.73, 7.57, 7.65, 5.43, 4.36, 4.69, 3.95, 2.25, 2.58, 0.74, 0.41, 0.57, 0.45, 2.2, 2.4, 2.7, 0.63, 1.18, 2.48, 5.56, 4.55, 3.39, 4.7, 1.5, 1.64, 1.09, 0.53, -0.56, -0.37, -0.55, -1.21, 1.02, 0.15, -0.23, 2.02, 3.37, 5.71, 4.54, 5.04, 5.79, 6.97, 6.06, 7.43, 7.88, 10.42, 12.44, 12.76, 12.13, 13.68, 12.12, 10.63
-8.38, -10.91, -9.29, -10.79, -6.97, -7.08, -5.22, -5.74, -5.98, -5.97, -6.58, -6.1, -5.31, -5.74, -5.89, -4.15, -3.11, -2.01, -1.51, -0.65, 0.74, -0.88, 2.51, 1.33, 1.29, 2.77, 2.67, 4.3, 6.2, 5.74, 5.14, 4.27, 3.8, 4.53, 3.16, 3.2, 3.09, 1.84, -0.35, 0.41, 1.65, 0.19, 0.02, 1.26, 1.08, 1.76, 1.27, 3.46, 5.69, 5.59, 4.93, 2.91, 3.32, 2.61, 3.44, 0.26, -0.21, -0.74, -0.36, -0.57, 1.66, 0.52, 2.31, 2.76, 3.71, 3.59, 5.42, 5.75, 6.38, 6.68, 5.14, 6.99, 7.23, 9.67, 12.21, 11.85, 14.2, 11.89, 10.18
-9.55, -11.03, -9.78, -10.33, -8.02, -5.97, -5.45, -5.59, -5.77, -5.51, -6.17, -5.28, -4.83, -6.67, -6.77, -4.09, -1.61, -1.75, -1.4, 0.36, 0.17, 0.61, 0.83, 1.61, 1.17, 1.37, 0.09, 2.19, 4.23, 6.22, 4.06, 2.43, 1.76, 2.18, 1.71, 2.19, 4.12, 3.15, 0.22, 0.29, 0.88, -0.54, 0.33, 2.34, 0.49, 0.49, -0.83, -0.16, 2.26, 5.24, 4.88, 2.48, 1.69, 2.03, 1.69, 0.81, -1.05, -0.41, -0.19, -2.09, -0.17, 1.05, 2.88, 3.25, 4.79, 4.38, 4.99, 5.33, 6.27, 5.82, 5.95, 6.61, 5.55, 8.3, 9.45, 10.66, 12.61, 12.62, 11.06
-11.1, -10.09, -9.43, -8.19, -9.73, -7.91, -6.64, -6.11, -5.19, -5.74, -7.09, -5.91, -5.35, -7.34, -7.17, -5.61, -4.68, -2.85, -1.19, -0.42, -0.92, -0.76, -0.34, 0.61, 2.57, 1.99, 0.98, 2.1, 3.58, 5.23, 4.65, 3.04, 2.48, 3.1, 2.34, 3.74, 3.39, 3.73, 0.78, 0.89, 0.48, -0.48, -0.39, 0.71, -0.35, 0.25, -0.95, -0.91, 0, 2.64, 2.88, 2.84, 0.64, 1.12, 2.76, 1.73, 0.7, 0.64, 0.22, -0.93, -0.7, 0.32, -0.22, 1.51, 2.47, 3.44, 6.11, 5.67, 5.98, 6.57, 4.54, 6.31, 6.13, 7.56, 9.27, 9.97, 11.26, 11.41, 12.81
-12.45, -10.94, -10.85, -8.42, -8.74, -8.69, -8.39, -7.64, -6.42, -6.77, -7.23, -7.3, -5.08, -6, -6.09, -5.83, -5.59, -4.2, -3.24, -2.61, -1.74, -0.73, -1.16, -0.23, 1.14, 1.52, -0.3, 0.98, 2.12, 3.71, 4.15, 3.6, 3.98, 2.29, 2.36, 2.42, 2.5, 3.3, 2.59, 1.22, 1.76, 0.3, 0.84, 2.08, 0.7, 0.13, 1.12, 0.11, 1.11, 3.63, 2.47, 1.8, 0.75, -1.03, 0.93, 1.29, 2.36, 1.51, 2.13, -1.13, 0.83, 1.98, 0.67, 1.12, 1.47, 4.04, 5.08, 6.49, 4.72, 7.51, 5.11, 6.87, 6.35, 6.7, 6.69, 8.31, 11.72, 13.13, 13.04
-12.24, -11.59, -11.22, -8.88, -8.94, -8.82, -7.55, -8.38, -7.17, -6.99, -7.51, -7.41, -5.07, -5.37, -6.51, -4.86, -4.81, -2.57, -3.42, -2.82, -2.28, -3, -2.1, -2.16, 0, 0.08, -1.03, 0.45, 1.3, 1.65, 3.38, 1.82, 2.69, 4.37, 4.56, 1.86, 2.04, 2.69, 2.88, 0.37, 1.2, 0.63, 0.15, 0.93, 0.41, 1.47, 0.57, -0.15, 1.84, 1.11, 2.12, 2.63, 2.59, 0.78, 2.68, 1.48, 1.91, 3.05, 3.53, 1.9, 2.44, 2.44, -0.43, -0.11, -0.06, 3.55, 5.92, 4.29, 4.76, 5.84, 5.88, 6.75, 5.74, 5.84, 6.61, 7.78, 9.71, 11.64, 13
-13.42, -12.51, -10.02, -7.84, -8.69, -8.92, -8.31, -7.88, -7.8, -7.35, -7.43, -9.24, -6.41, -5.13, -5.38, -5.66, -6.41, -5.67, -4.55, -4.87, -2.37, -2.7, -2.4, -3.41, -1.24, -1.57, -0.35, -1.72, 0, 0.49, 2.14, 2.34, 1.51, 3.94, 3.92, 3.46, 2.86, 1.18, 2.37, 1.39, -0.37, 0.51, 0.3, 1.04, 1.17, 0.13, 0.35, 0.16, 1.2, 1.66, 2, 0.97, 1.79, 1.27, 1.98, 3.09, 3.74, 3.69, 4.19, 3.45, 3.88, 3.34, 0.72, 2.01, 0.53, 3.81, 4.75, 4.89, 4.18, 3.66, 4.75, 7.18, 5.45, 5.41, 5.99, 7.02, 8.38, 9.91, 12.36
-13.29, -14.3, -11.51, -8.57, -8.39, -8.84, -8.85, -9.42, -8.96, -6.16, -6.85, -8.04, -8.14, -8.02, -7.99, -8.69, -7.41, -7.96, -5.71, -3.86, -3.11, -1.48, -0.06, -3.25, -2.24, -1.25, -1.11, -2.66, -2.04, -1.62, 0.28, 1.27, 0.58, 2.32, 3.38, 4.07, 3.11, 1.71, 1.38, 0.48, 0.32, 0.45, -0.56, -0.6, 1.66, 0.23, 0.32, -1.16, 0.81, 1.26, 1.2, 0.1, 1.29, 0.7, 0.39, 1.24, 3.02, 1.47, 2.43, 3.27, 2.82, 4.77, 0.82, 1.96, 1.35, 3.75, 4.33, 3.96, 4.08, 4.2, 4.03, 5.25, 5.21, 6.65, 6.9, 6.96, 7.42, 8.65, 10.42
-14.36, -14, -12.74, -9.86, -9.11, -8.97, -8.78, -7.41, -8.23, -8.04, -7.23, -7.98, -7.78, -9.79, -8.45, -10.12, -8.76, -8.39, -6.81, -5.22, -2.87, -2.26, -0.73, -2.13, -1.89, -1.35, -0.12, -0.15, -2.25, -2.06, -1.93, -0.42, 0.96, 0.71, 2.97, 3.34, 3.23, 3.39, 1.93, 1.82, 1.48, 0.98, -0.09, -0.72, 0.41, 0.75, 1.25, 0.05, 0.7, 1.72, 1.49, 1.36, 1.01, 2, 1.19, 1.45, 3.64, 4.24, 3.32, 5.19, 3.62, 4.16, 2.38, 1.16, -0.46, 1.93, 3.71, 3.46, 3.66, 3.66, 4.05, 4.48, 6.71, 6.71, 4.98, 6.55, 5.45, 7.1, 7.36
-14.04, -13.83, -11.69, -9.88, -9.48, -9.36, -8, -7.69, -7.82, -7.94, -7.92, -7.85, -7.72, -9.27, -7.73, -7.63, -9.04, -10.41, -8.6, -7.95, -5.82, -5.22, -2.12, -1.94, -3.32, -3.49, -0.78, -1.59, -0.58, -1.6, -2.24, 0.54, 0.76, 1.95, 3.73, 4.12, 3.69, 2.93, 3.19, 2.55, 2.69, 1.06, -0.65, 1.06, 0.94, 1.35, 1.56, -0.5, -0.06, 0.77, 2.25, 1.8, 0.33, 1.28, 1.39, 1.84, 3, 3.98, 2.95, 5.38, 5.41, 5.01, 3.82, 2.44, -0.85, -1, 0.02, 3.51, 4.46, 5.17, 4.72, 5.19, 6.25, 6.55, 5.59, 6.92, 6.5, 7.08, 7.03
-13.33, -13.57, -10.65, -11.28, -10.38, -10.97, -9.53, -9.72, -8.5, -7.87, -7.25, -8.84, -8.26, -9.62, -8.68, -9.21, -8.35, -10.41, -9.91, -6.98, -6.4, -4.96, -1.78, -0.39, -1.86, -2.59, -1.41, -2.01, 0.47, -1.74, -1.79, -0.62, 0.64, 2.81, 3.49, 5.2, 5.43, 3.5, 5.08, 3.21, 2.93, 2, 0.67, 2.07, 1.49, 1.43, 2.24, 0.74, 0.51, 0.33, -0.44, 0.53, 0.28, 2.7, 2.01, 1.74, 2.37, 1.4, 1.47, 2.37, 5.21, 5.56, 5.63, 4.32, 1.02, -1.75, -1.33, 1.35, 4.11, 5.42, 5.06, 6.36, 6.36, 5.07, 5.33, 4.85, 5.72, 6.97, 5.62
-13.4, -14.88, -11.04, -11.38, -10.2, -10.61, -9.58, -9.12, -8.45, -8.1, -6.73, -7.82, -6.92, -7.96, -6.71, -8.86, -10.46, -10.46, -8.2, -7.38, -6.43, -5.35, -3.56, -1.5, -2.5, -2.1, -3.03, -1.45, -0.43, -1.54, -1.07, -0.59, 0.08, 1.38, 1.34, 4.89, 5.05, 4.34, 4.56, 3.99, 3.43, 2.76, 1.74, 2.6, 1.26, 1.31, 1.51, 1.31, 0.3, -1.08, -1.66, -0.65, 0.07, 0.32, 3.13, 1.59, 2.24, 1.75, 1.94, 0.58, 2.86, 4.72, 5.17, 4.65, 2.83, 0.64, -0.16, 0.69, 2.52, 3.82, 2.56, 5.75, 5.48, 5.28, 3.93, 4.93, 4.77, 5.83, 7.16
-13.44, -13.27, -11.72, -10.46, -11.42, -11.28, -9, -8.66, -9.05, -7.88, -7.3, -7.98, -7.13, -8.61, -7.44, -6.88, -6.96, -8.93, -9.19, -9.11, -6.05, -5.44, -4.86, -2.91, -2.42, -3.79, -4.36, -3.71, -2.4, -1.95, -1.51, -0.63, -1.05, -0.3, 0.25, 2.55, 4.11, 2.57, 4.28, 4.14, 4.16, 3.46, 2.61, 2.73, 3.85, 2.58, 2.31, 1.82, 1.23, -1.9, -3.53, -2.5, -0.06, -0.91, 1.09, 2.67, 2.37, 1.95, 2.17, 2.5, 2.74, 3.57, 4.37, 3.61, 2.78, -0.2, -1.6, -0.46, 1.44, 1.62, 0.24, 4.33, 4.88, 5.05, 5.58, 5.14, 3.67, 3.35, 3.85
-12.72, -13.05, -11.42, -10.63, -12.09, -11.67, -9.51, -8.93, -10.91, -8.26, -7.54, -8.63, -6.95, -7.77, -7.49, -7.12, -7.49, -7.94, -8.56, -9.14, -7.67, -5.57, -5.17, -3.84, -3.13, -3.45, -4.67, -3.33, -2.66, -3.08, -1.35, -0.44, -0.75, -0.92, -0.15, 0.71, 3.35, 2.48, 5.02, 4.73, 4.52, 4.87, 2.73, 2.72, 4.54, 3.23, 2.77, 2.04, 2.94, 2.15, -0.96, -1.88, 0.22, -0.33, 1.25, 3.23, 3.23, 0.64, 1.41, 2.06, 2.15, 3.18, 3.73, 3.51, 2.9, 1.26, 1.22, -0.12, 0.55, 1.17, 0.46, 1.5, 4.7, 3.46, 4.42, 4.4, 3.47, 3.1, 4.51
-10.99, -11.58, -10.87, -10.37, -10.1, -10.76, -8.35, -8.88, -10.02, -9.55, -9.73, -8.93, -8.07, -7.27, -6.62, -6.91, -6.94, -5.84, -6.72, -8.62, -9.17, -7.36, -6.27, -4.94, -5.71, -4.59, -5.9, -3.12, -2.99, -3.27, -2.32, -1.38, -2.33, -2.23, 0.62, -0.56, 0.63, 2.13, 3.44, 5.96, 6.97, 5.92, 4.76, 4.15, 5.42, 4, 3.05, 0.81, 1.94, 2.02, 1.68, -0.92, 0.1, -0.77, -1.5, 1.89, 2.05, 0.92, 1.57, 2.97, 3.15, 2.41, 3.27, 3.37, 2.63, 1.66, 1.66, 0.7, 0.85, 2.57, 1.24, -0.47, 2.19, 2.3, 4.43, 3.2, 3.32, 2.74, 3.77
-10.86, -11.66, -9.78, -11.82, -10.55, -10.75, -8.37, -7.35, -9.14, -10.33, -8.63, -8.91, -7.52, -6.85, -6.98, -7.35, -5.96, -7.71, -7.6, -8.22, -8.22, -7.74, -8.25, -6.6, -7.14, -7.1, -6.82, -6.16, -4.99, -4.54, -3.45, -4.19, -3.29, -3.6, -0.6, -0.93, -0.25, 1.93, 2.12, 3.86, 4.65, 5.22, 4.83, 5.43, 7.27, 4.6, 2.63, 1.63, 3.65, 4.2, 2.06, 0.07, 1.37, -1.03, -0.99, -0.4, 0.81, 1.51, 3.08, 3.05, 3.5, 2.97, 1.49, 1.96, 2.25, 3.8, 3.19, 2.98, 0.44, 1.71, 2.19, 0.66, 1.45, 3.75, 3.63, 2.79, 2.16, 2.54, 4.92
-11.42, -11.54, -12.16, -10.43, -11.39, -10.83, -8, -8.16, -8.63, -8.67, -9.88, -9.08, -7.34, -6.08, -6.55, -7.31, -7.51, -5.89, -5.76, -8.26, -8.35, -6.42, -7.08, -6.19, -7.52, -7.31, -7.05, -5.28, -5.14, -6.63, -5.34, -6.06, -4.68, -3.95, -0.83, -1.75, -2.94, 0.55, 1.71, 2.43, 3.57, 4.44, 4.88, 6.92, 6.7, 4.21, 3.42, 1.15, 2.74, 2.97, 2.6, -0.4, 1.33, 0.55, -0.35, -0.71, 1.48, 1.49, 0.62, -0.02, 2.06, 2.59, 0.89, 1.39, 2.52, 3.2, 2.9, 1.05, 0.74, 1.19, 1.08, 0.51, 1.9, 2.14, 2.21, 2.37, 1.48, 2.78, 2.75
-11.51, -12.59, -12.37, -11.38, -12.6, -10.45, -8.81, -10.09, -9.81, -9.16, -9.53, -8.48, -9.12, -7.41, -6.89, -8.33, -7.52, -5.35, -6.69, -7.38, -7.88, -8.81, -7.53, -8.53, -8.51, -5.92, -6.19, -5.75, -4.24, -5.24, -5.59, -5.57, -5.99, -4.64, -4.66, -4.26, -5.19, -0.68, 0.56, 1.13, 2.54, 3.35, 2.45, 6.68, 7.81, 7.75, 5.54, 3.58, 2.02, 2.03, 2.1, 0.41, 1.23, 1.65, -0.76, -0.74, 0.02, 1.34, 0.97, -1.36, 0.68, 0.1, 0.62, 2.5, 2.48, 2.74, 2.82, 0.89, 1.11, 1.97, 0.66, 2.08, 2.58, 2.84, 3.92, 2.24, 1.85, 3.13, 2.6
-10.96, -11.8, -10.83, -9.54, -11.2, -10.25, -9.57, -10.67, -11.3, -11.62, -9.18, -8.62, -9.8, -8.14, -7.51, -9.01, -8.99, -8.77, -6.43, -7.07, -6.32, -7.88, -7.95, -7.34, -9.27, -7.87, -8.28, -7.15, -5.85, -5.89, -5.82, -7.35, -6.85, -4.05, -4.25, -4.35, -4.77, -3.17, -1.23, -0.84, 1.67, 4.26, 2.76, 4.53, 6.17, 8.1, 6.86, 7.12, 3.63, 2.88, 2.8, 1.4, -0.06, 0.64, -1.05, -1.04, -1.05, -1.27, -0.07, 0.55, 0.58, 1.66, 2.61, 2.55, 3.44, 2.48, 3.7, 4.21, 3.4, 2.64, 1.61, 0.81, 1.64, 2.2, 4.93, 3.96, 2.77, 4.15, 3.38
-10.69, -11.31, -10.66, -10.53, -9.94, -10.1, -10.71, -11.88, -10.54, -9.88, -8.73, -8.33, -8.93, -8.2, -9.39, -10.98, -11.3, -9.74, -8.14, -6.58, -7.07, -8.38, -8.16, -7.75, -6.56, -6.59, -7.46, -5.71, -7.24, -7.79, -6.4, -7, -5.45, -4.66, -4.44, -4.23, -4.38, -3.67, -3.83, -4, -2.92, -0.64, -0.51, 3.87, 5.09, 6.6, 6.52, 7.15, 4.16, 3.04, 1.83, 0.03, 0.54, -0.05, -2.49, -1.76, -1.61, -2.03, -2.53, -0.75, -0.08, 1.1, 0.41, 1.3, 1.85, 0.84, 2.94, 2.91, 3.76, 3.79, 3.33, 2.8, 1.66, 2.67, 2.83, 3.4, 3.1, 3.62, 3.49
-10.61, -10.14, -9.43, -9.51, -9.81, -11.53, -11.55, -12.54, -11.59, -10.73, -9.73, -10.15, -9.74, -9.17, -9.1, -11.5, -11.74, -11.15, -9.83, -8.2, -7.3, -7.84, -6.12, -5.2, -4.03, -4.6, -6.01, -5.63, -6.79, -7.17, -7, -7.2, -7.03, -6.69, -6.55, -5.41, -4.97, -4.34, -3.46, -3.29, -3.17, -1.78, -1.25, 1.56, 4.82, 3.91, 4.04, 4.78, 5.16, 4.73, 5.2, 2.67, 0.91, -0.21, -1.79, -1.76, -0.61, -1, -1.76, -1.31, -0.68, 0.52, 0.67, 1.29, 1.91, 1.91, 2.43, 3.65, 3.85, 3.82, 3.01, 3.19, 1.41, 1.76, 2.31, 2.88, 2.51, 2.63, 2.91
-10.74, -10.44, -9.1, -10.33, -8.78, -8.68, -10.87, -12.62, -10.23, -10.12, -10, -10.84, -9.5, -7.92, -8.16, -9.4, -10.68, -10.98, -9.3, -7.91, -5.91, -6.68, -6.64, -5.88, -5.04, -4.8, -4.27, -4.96, -3.96, -5.46, -7.13, -5.98, -6.74, -5.86, -6.36, -6.69, -5.79, -3.65, -5.14, -5.63, -4.94, -3.71, -0.96, 1.49, 1.46, 3.09, 3.97, 4.45, 3.66, 4.09, 5.23, 4.24, 3.03, 0.83, -1.38, -1.41, -1.01, -1.43, -2.48, -0.03, 0.27, -0.56, 1.35, -0.1, 0.64, -0.36, 2.38, 4.62, 2.92, 2.01, 2.63, 2.92, 3.24, 4.03, 3.25, 3.01, 3.27, 3.36, 1.73
-12.57, -13.35, -9.85, -9.56, -9.19, -10.54, -11.61, -11.29, -10.57, -11.89, -11.51, -12.7, -10.94, -8.04, -9.75, -9.86, -10.22, -10.79, -10.07, -10.11, -6.06, -6.03, -5.18, -5.53, -4.44, -4.89, -3.51, -3.56, -2.29, -5.1, -4.72, -3.52, -3.83, -4.65, -3.92, -6.54, -6.27, -4.88, -6.53, -5.72, -4.59, -6.01, -2.27, 0.23, 0.82, 1.84, 3.23, 3.24, 1.79, 1.37, 2.95, 3.58, 1.95, 1.28, 0.36, 1.46, -0.02, -0.07, 0.48, 0.29, 0.29, -1.63, -0.33, 0.84, -1.06, -1.85, 0.09, 2.39, 3.87, 3.4, 2.12, 2.51, 3.27, 1.7, 4.46, 3.69, 3.62, 3.51, 2.7
-12.32, -12.31, -11.24, -10.35, -10.06, -10.32, -11.04, -11.1, -10.73, -10.18, -10.84, -11.34, -12.03, -8.18, -9.02, -9.38, -10.05, -10.43, -10.25, -10.18, -8.12, -7.01, -6.08, -6.09, -5.25, -6.23, -3.4, -4.28, -1.64, -1.71, -2.93, -3.56, -2.07, -4.27, -4.1, -6.08, -7.13, -6.81, -6.03, -5.42, -5, -5.13, -3.11, -0.54, -0.39, 0.65, 1.87, 2.32, 1.61, 1.49, 2.04, 2.82, 2.39, 2.75, 3.14, 1.85, 0.45, -1.45, -0.38, -0.6, 1.45, 0.48, 1.61, 3.05, 0.03, -1.77, -0.26, 1.38, 1.28, 2.93, 2.56, 0.79, 2.65, 2.87, 3.76, 3.77, 4.38, 3.19, 1.7
-13.36, -13.74, -12.46, -12.85, -10.12, -11.56, -10.41, -10.55, -12.52, -9.68, -10.6, -9.16, -10.36, -9.29, -7.66, -8.28, -7.6, -9.21, -9.85, -11.05, -9.54, -8.28, -7.14, -6.69, -5.81, -4.22, -4.38, -5.27, -2.94, -3.52, -2.66, -3.16, -2.56, -3.18, -4.11, -4.83, -5.76, -6.01, -6.02, -7.15, -5.23, -4.02, -2.65, -1.25, -0.82, 0.57, 1.1, 0.53, 1.35, -0.22, 0.07, -0.08, 1.91, 2.44, 4.38, 3.13, 0.39, 0.29, -0.05, -0.86, 0.72, -1.06, 1.17, 3.13, 0.15, -1.33, 1.09, 0.25, 2.29, 2.76, 2.06, 0.35, 1.53, 3.25, 4.75, 4.07, 4.43, 5.13, 3.63
-12.55, -13.3, -12.87, -12.69, -12.27, -12.96, -13.34, -9.97, -9.86, -7.82, -9.17, -9.15, -9.73, -10.51, -10.54, -8.25, -7.94, -8.8, -9.65, -10, -11.54, -10.07, -8.59, -7.63, -6.74, -4.53, -2.69, -3.55, -4.32, -4.02, -3.28, -3.23, -2.39, -2.73, -1.46, -2.77, -4.87, -4.35, -4.79, -4.68, -3.72, -4.04, -2.2, -3.12, -0.67, -1.12, -1.96, -1.68, -0.21, -2.06, -1.31, 1.27, 1.58, 2.18, 4.95, 3.96, 2.84, 1.19, 1.27, 0.61, 0.69, -1.57, -1.48, 0.03, 0.46, -1.67, 0.57, 0.36, 2.4, 2.78, 1.64, 0.47, 1.48, 1.97, 2.17, 2.69, 2.79, 3.96, 4.52
-12.15, -12.34, -12.89, -11.67, -11.54, -12.79, -12.06, -10.73, -12.14, -9.88, -10.85, -11.87, -11.47, -11.09, -11.96, -10.9, -10.53, -7.92, -8.67, -10.16, -10.3, -10.14, -8.09, -7.27, -7, -5.42, -4.44, -2.45, -4.29, -4.42, -3.85, -3.55, -3.13, -2.7, -0.31, -2.08, -3.07, -3.71, -4.25, -3.93, -3.02, -3.38, -1.29, -2.2, -1.49, -1.31, -1.84, -1.91, -0.36, -1.09, -0.95, -0.67, 0.24, 0.74, 2.85, 2.79, 2.07, 0.99, 1.1, 1.06, 2.78, 1.11, -1.14, -2.39, -0.08, -1.51, -0.39, 0.57, 3.45, 3.77, 2.8, 0.67, 2.3, 2.65, 3.94, 1.37, 2.92, 4.7, 4.32
-10.95, -11.71, -13.7, -12.74, -12.14, -10.74, -11.69, -10.49, -11.59, -12.5, -10.34, -12.71, -12.05, -13.31, -12.28, -9.78, -9.87, -8.79, -8.12, -8.12, -9.36, -8.65, -10.07, -8.11, -8.9, -7.32, -7.1, -4.67, -4.48, -4.68, -4.31, -3.94, -5.2, -4.33, -0.35, -1.21, -3.15, -2.17, -3.27, -3.67, -3.45, -3.62, -2.32, -2.26, -2.91, -2.86, -2.02, -2.37, -1.48, -0.22, -1.38, 0.15, 0.2, -0.4, 1.76, 2.97, 0.95, 2.42, 2.75, 1.8, 2.28, 2.7, 1.02, -0.79, 1.13, -0.04, -0.76, -0.49, 1.15, 2.68, 4.45, 1.96, 3.68, 2.46, 1.97, 2.26, 2.59, 2.52, 3.12
-10.95, -10.97, -11.71, -11.85, -11.86, -9.95, -11.5, -10.72, -11.48, -10.63, -9.65, -13, -12.7, -13, -14.25, -12.79, -12.41, -8.85, -8.56, -8.34, -9.52, -9.75, -10.11, -10.67, -9.84, -10.57, -8.46, -7.28, -6.44, -5.73, -3.15, -4.74, -3.37, -5.81, -2.89, -2.41, -3.16, -2.69, -1.23, -3.64, -2.96, -3.94, -3.16, -3.84, -2.74, -2.6, -2.3, -1.6, -1.92, -1, -1.2, 1.42, 2.73, -0.26, 0.09, 1.54, 0.61, 0.8, 1.75, 1.78, 3.61, 1.69, 1.44, 0.33, -0.1, -2.06, -2.36, -1.48, 0.88, 1.26, 3.35, 2.21, 4.42, 3.61, 2.61, 1.26, 2.28, 1.16, 2.87
-11.81, -13.11, -12.99, -12.37, -13.98, -10.4, -11.53, -9.93, -10.71, -11.12, -9.84, -11.58, -12.26, -12.19, -13.23, -13.2, -13.25, -11.55, -10.19, -9.27, -9.51, -8.65, -9.35, -8.7, -8.97, -10.45, -10.3, -8.78, -7.58, -6.66, -6.43, -5.08, -4.17, -4.99, -2.99, -2.04, -2.77, -2.82, -3.46, -5.16, -3.58, -4.18, -3.22, -3.85, -3.29, -4.83, -3.53, -2.43, -0.95, -1.84, -2.58, 1, 1.87, 0.74, 2.16, 1.85, 1.23, 2.14, 0.44, 0.72, 2.56, 1.84, 0.66, -0.57, -0.35, -1.63, -0.71, -2.19, -0.65, 0.73, 1.17, 1.39, 2.25, 3.13, 2.87, 2.07, 1.93, 0.16, 1.52
-12.29, -10.74, -11.77, -11.78, -14.38, -10.92, -13.14, -10.92, -11.71, -11.65, -11.25, -13.09, -12.25, -12.09, -13.67, -12.19, -12.74, -11.08, -9.48, -7.84, -7.32, -7.6, -9.38, -8.86, -8.83, -10.52, -9.54, -8.97, -6.76, -6.81, -6.32, -5.85, -5.75, -4.75, -3.56, -1.07, -1.47, -1.89, -0.84, -3.55, -4.09, -4.62, -5.23, -4.55, -5.46, -3.84, -4.84, -3.9, -2.63, -2.04, -0.92, -0.53, 1.73, 1.23, 1.24, 2.41, 1.68, 0.3, 0.3, -0.18, 1.19, -0.15, 0.27, -1.87, -1.21, -0.72, 0.22, -1.09, -2.11, -0.47, 0.18, -0.45, 1.31, 3.2, 2.39, 0.42, 0.76, 0.98, 0.53
-12.08, -11.41, -13.03, -11.1, -12.81, -10.18, -11.81, -9.79, -10.75, -11.73, -12.86, -13.11, -12.29, -12.33, -12.58, -11.96, -12.02, -9.91, -10.94, -9.34, -7.43, -8.61, -8.04, -8.45, -8.55, -9.54, -9.54, -9.62, -7.69, -6.62, -8.46, -6.99, -7.77, -5.77, -4.69, -1.03, 0.3, -1.95, -1.08, -1.53, -4.36, -4.34, -3.87, -5.13, -5.27, -4.56, -5.77, -5.39, -4.37, -3.84, -2.44, -0.2, -0.35, -0.26, 0.16, 2.32, 2.02, 1.17, 0.74, 1.69, 0.86, -0.45, 0.04, 1.02, -0.52, -1.58, -0.86, -0.27, -1.77, -1.12, -0.16, 1.08, 1.18, 4.03, 3.27, 2.04, 1.7, 3.09, 0.93
-12.16, -11.6, -11.65, -10.61, -11.47, -10.91, -11.33, -11.13, -10.53, -10.77, -11.68, -14.17, -12.75, -12.52, -11.33, -11.55, -13.48, -12.8, -11.89, -10.6, -8.95, -8.79, -7.32, -6.75, -7.4, -8.61, -8.57, -9.01, -9.97, -7.9, -6.55, -5.6, -5.62, -6.29, -7.21, -3.86, -0.43, -0.31, 0.45, -0.35, -3.75, -3.63, -3.96, -4.6, -3.46, -3.88, -4.83, -6.85, -6.76, -5.46, -3.9, -1.03, -1.36, -0.71, -0.33, 1, 3.31, 2.19, 1.71, 2.09, 1.21, 0.45, 0.27, 2.53, 0.14, -2.62, -2.58, -2.21, -3.1, -2.25, -3.02, -2.74, -2.39, -0.73, -0.46, 0.79, 2.79, 4.36, 3.16
-11.9, -11.93, -11.66, -10.63, -10.85, -10.88, -10.12, -11.5, -11.74, -10.74, -11.19, -11.83, -13.59, -13.22, -11.66, -11.47, -13.25, -13.79, -13.98, -14.28, -13.15, -12.85, -9.87, -9.55, -8.54, -8.54, -8.47, -9.57, -9.46, -9.6, -8.73, -7.17, -7.1, -6.38, -6.93, -6.2, -3.34, -0.07, 1.66, 0.81, -1.76, -4.55, -2.98, -2.79, -2.85, -4.74, -3.54, -4.68, -5.61, -5.92, -5.43, -1.67, -0.04, 0.4, 1.19, 1.16, 2.57, 1.39, 1.87, 1.26, 0.9, 0.87, 1.32, 1.69, -0.76, -2.32, -2.52, -2.66, -3.02, -2.55, -1.16, -1.9, -2.47, -2.46, -1.54, -0.4, -0.69, 0.57, 0.63
-13.34, -13.47, -14.06, -12.19, -12.2, -11.85, -11.04, -10.04, -10.94, -10.65, -10.78, -12.97, -11.3, -12.46, -11.86, -11.82, -13.02, -13.38, -13.73, -14, -13.45, -13.6, -10.99, -8.55, -8.98, -8.84, -9.72, -7.87, -8.95, -9.64, -9.18, -7.51, -7.31, -8.57, -7.74, -6.16, -5.1, -2, -0.16, -0.73, -2.88, -5.15, -3.32, -3.82, -3.31, -3.45, -3.5, -5.39, -3.73, -4.67, -3.6, -1.14, 0, -1.41, -0.54, 0.79, 1, 1.23, 1.52, 1.34, 0.75, 2.77, 2.26, 1.19, -0.7, -2.83, -2.87, -3.02, -3.56, -3.77, -2.47, -2.18, -2.32, -2.24, -3.53, -1.92, -1.91, -0.71, -1.43
-13.71, -11.99, -13.68, -13.22, -13.18, -13.97, -12.47, -12.66, -11.8, -11.56, -10.7, -11.31, -10.85, -11.68, -13.12, -12.47, -12.86, -11.2, -12.39, -11.91, -12.08, -12.7, -9.88, -9.22, -9.99, -9.48, -9.6, -7.31, -8.25, -8.95, -9.08, -8.47, -7.59, -6.78, -5.67, -7.44, -6.14, -3.54, -1.64, 0.07, -0.96, -3.88, -1.83, -4.58, -4.18, -4.51, -3.46, -5.5, -3.81, -4.68, -4.14, -2.33, -0.43, -2.27, -1.54, -0.11, 0.24, 0.05, 1.15, 0.89, -1.06, 1.55, 2.24, 3.47, -0.04, -3.14, -2.93, -3.64, -3.23, -4.58, -3.49, -2.93, -4.37, -4.48, -4.05, -2.98, -2.9, -1.78, -1.07
-12.23, -13.33, -14.19, -13.44, -12.99, -14.87, -15.1, -13.98, -13.07, -12.29, -12.38, -11.84, -11.6, -13.54, -15.12, -13.09, -11.53, -10.35, -10.98, -9.76, -9.96, -12.05, -10.81, -9.26, -10.06, -8.69, -8.42, -7.83, -6.76, -9.65, -9.49, -10.95, -9.27, -8.3, -8.08, -8.91, -8.12, -4.42, -1.74, -1.43, -2.38, -1.92, -1.52, -2.92, -3.05, -3.81, -2.1, -2.7, -5.25, -5.01, -5.2, -5.25, -3.38, -2.85, -2.24, -1.17, -0.13, 0.33, 0.5, -0.67, 0.16, 1.86, 1.98, 3.45, 1.41, -1.77, -3.39, -5.02, -3.6, -4.13, -2.41, -3.71, -5.34, -4.92, -4.32, -3.55, -3.79, -3.47, -1.31
-13.06, -14.06, -14.11, -12.53, -12.85, -14.72, -14.64, -14.25, -13.55, -11.68, -12.04, -12.02, -11.22, -12.38, -12.06, -11.71, -10.71, -9.7, -9.82, -8.82, -9.52, -8.93, -10.85, -10.55, -9.8, -7.85, -8.28, -6.44, -6.61, -7.05, -6.9, -7.99, -8.12, -7.91, -8.01, -8.41, -8.16, -5.94, -3.84, -3.23, -2.8, -2.85, -3.52, -2.62, -2.03, -4.36, -4.59, -3.65, -4.99, -4.67, -3.56, -4.73, -5.08, -4.32, -4.02, -0.91, -2.03, -1.43, -0.28, 0.64, 0.57, 1.14, 1.2, 0.87, 2.85, 0.79, 0.24, -2.88, -3.29, -3.48, -3.62, -3.66, -5.66, -5.39, -4.15, -3.8, -2.94, -3.84, -2.14
-12.61, -13.52, -13.5, -13.9, -14.97, -16.52, -15.61, -15.11, -16.04, -12.88, -13.29, -14.04, -13.15, -14.06, -11.1, -11.43, -12.67, -10.77, -10.54, -11.05, -12.08, -10.57, -11.21, -11.66, -10.04, -10.84, -9.26, -8.1, -5.99, -7.84, -8.79, -8.23, -8.17, -7.88, -7.27, -6.76, -7.58, -7.56, -5.65, -6.21, -3.88, -4.93, -4.22, -3.42, -1.46, -4.37, -4.08, -3.26, -4.21, -2.51, -3, -3.29, -5.57, -5.07, -4.67, -2.97, -0.78, -1.97, -0.93, -1.81, -1.11, 0.08, -0.53, 0.27, 2.71, 3.54, 3.19, 1.97, -0.61, -1.35, -2.2, -1.79, -2.77, -3.45, -5.62, -5.1, -3.76, -3.31, -2.27
-12.58, -13.04, -13.48, -13.82, -14.29, -14.21, -14.91, -15.15, -15.59, -13.7, -11.9, -13.92, -14.46, -13.88, -13.05, -12.66, -13.03, -12.91, -10.98, -11.76, -12.14, -10.67, -12.75, -12.51, -11.29, -10.57, -9.67, -8.89, -5.83, -5.09, -5.2, -5.14, -6.12, -6.79, -7.96, -8.1, -9.64, -8.48, -7.33, -7.37, -7.52, -6.76, -4.33, -2.78, -2.16, -3.29, -2.3, -2.37, -2.99, -2.76, -1.35, -2.05, -4.38, -6.67, -6.51, -3.14, -1.96, 0, -0.5, -1.06, 0.69, -0.49, -0.46, -0.51, 2.03, 2.89, 3.04, 1.77, 0.58, 1.08, 0.01, 0.66, -1.68, -4.5, -4.2, -4.08, -4.23, -3.98, -4.84
-12.59, -11.68, -13.14, -13.57, -12.78, -12.05, -14.03, -13.76, -15.1, -12.72, -11.4, -13.39, -13.08, -13.48, -13, -11, -11.59, -12.25, -10.33, -9.06, -11.09, -11.5, -12.68, -12.88, -11.96, -10.52, -10.04, -9.04, -7.2, -6.14, -5.67, -4.21, -6.46, -6.58, -6.95, -6.04, -8.19, -8.76, -8.2, -7.18, -7.03, -6.88, -5.85, -4.58, -3.73, -4.16, -4.56, -2.32, -1.82, -2.64, -0.36, -0.24, -0.8, -4.21, -5.88, -3.92, -2.97, -1.74, -2.3, -1.29, 1.56, 0.44, 0.04, -1.5, 0.52, 2.44, 0.89, 2.29, 1.55, 0.14, -0.55, -1.86, -0.86, -2.68, -1.88, -1.49, -2.66, -3.44, -3.59
-11.24, -11.54, -11.38, -13.21, -11, -10.42, -13.71, -14.01, -14.48, -14.52, -12.44, -13.99, -13.36, -15.29, -14.23, -12.64, -12.08, -12.06, -11.24, -10.92, -10.27, -11.62, -12.97, -11.67, -11.86, -10.75, -9.75, -9.39, -7.97, -7.05, -5.34, -3.42, -5.85, -6.86, -5.1, -3.78, -5.99, -7.06, -5.83, -7.7, -9.03, -6.14, -4.61, -3.05, -4.45, -4.41, -4.37, -4.04, -1.57, -2.7, -0.76, -1.56, -1.02, -3.23, -4.58, -2.81, -2.89, -2.33, -1.69, -3, -0.37, 0.36, 0.72, -1.4, -1.69, 0.37, -1.23, 0.05, 1.42, -0.19, 1.47, 0.29, -0.98, -2.06, -2.6, -1.46, -2.06, -1.03, -2.44
-11.33, -12.76, -11.75, -12.46, -10.01, -9.87, -13.3, -13.61, -13.96, -13.82, -14.85, -14.55, -12.56, -15.08, -14.65, -13.14, -14.58, -14.16, -12.21, -11.4, -10.36, -10.65, -10.13, -10.73, -12.66, -11.77, -10.85, -9.95, -9.33, -7.98, -6.67, -6.33, -6.08, -5.1, -5.36, -4.58, -4.89, -6.19, -4.85, -6.71, -8.09, -7, -6.12, -3.84, -4.14, -4.95, -4.2, -4.86, -5.14, -4.81, -1.12, -1.29, -0.82, -3.16, -3.9, -1.48, -4.07, -2.82, -3.54, -1.46, -2.85, -1.68, -1.11, 0.44, -0.56, -0.04, -2.05, -0.93, 0.25, 0.06, 0.15, 0.59, 1.63, -0.23, -1.4, -0.59, -1.3, -0.93, -1.5
