0.59, 0.59, 0.87, -0.03, 0.83, 0.68, -1.08, -0.91, 0.41, 1.28, 0.83, 0.04, 0.44, 0.43, -0.74, -0.77, -1.99, -1.4, -2.57, -2.55, -1.1, -1.09, -1.89, -1.48, -1.48, -1.2, -1.07, -1.92, -0.47, -0.46, 0.95, -0.05, -0.45, -0.16, -1.55, -1.57, -0.87, 0.75, 0.75, 0.18, -0.12, -0.12, -2.08, -0.49, -1.36, -1.33, -1.12, -2.74, -1.11, -0.56, -0.56, 0.94, 0.98, 0.72, 2.35, 1.99, 2.19, 2.15, 1.46, 1.28, 1.18, 3.03, 2.94, 2.91, 2.91, 1.07, 1.04, 1.04, 0.56, 0.24, 1.52, 1.53, 2.49, 1.77, 1.41, 2.28, 1.85, 2.01, 0.51
2.57, 0.25, 0.37, -1.21, -0.2, 2.07, -1.47, -2.38, -0.51, 0.17, 0.5, 0.94, 1.41, -1.04, 0.29, -1.34, -2.64, -3.23, -3.02, -2.66, -1.88, -2.95, -2.15, -2.18, -3.67, -1.3, -1.02, -1.5, -1.26, 0.22, 0.72, -0.02, 0.37, 1.66, -0.48, -1.03, -0.59, 0.09, 0.04, 0.47, 0.24, 0.2, -0.98, -0.69, -0.93, -1.14, -0.06, -2.04, -1.56, 0.1, 1.62, 2.73, 1.95, 1.4, 2.91, 1.2, 2.42, 2.83, 2.37, 1.82, 1.8, 2.79, 2.99, 3.12, 4.77, 3.32, 2.7, 0.61, 1.78, 0.79, -0.63, 0.53, 2.68, 2.98, 2.2, 2.22, 1.18, 1.18, 1.08
4.56, 2.01, -0.24, -0.77, -1.18, 0.38, 0.94, -0.14, -0.78, 0.83, 0.59, 0.82, -0.38, -1.24, -0.49, -0.88, -1.75, -2.38, -0.84, -2.28, -1.66, -2.01, -1.43, -1.81, -3.61, -3.95, -2.36, -2.9, -1.94, -0.48, 0.81, -1.39, -2.11, -0.22, 0.08, 0.39, 0.42, 0, 1.59, 2.89, -0.21, -0.69, -0.65, -0.09, -0.58, -1.68, -0.79, -0.88, 0, -0.93, -1.1, -0.92, 0.24, 2.52, 2.66, 2.04, 0.44, 0.03, 1.41, 1.59, 3.16, 1.73, 4.35, 4.54, 4.69, 4.95, 5.35, 3.01, 2.46, 0.65, 1.21, 1.15, 3.45, 3.24, 1.49, 1.96, 3.01, 1.89, 1.66
2.98, 2.18, 0.52, -0.71, -2.27, -1.21, 0.02, 0.01, -0.02, 0.44, 0.07, 0.94, 0.28, 0.19, -0.16, -0.07, -0.29, -0.77, 0.73, -1.21, -1.08, -1.51, -1.21, -2.69, -4.19, -4.08, -3.3, -3.08, -2.65, -1.57, 0.84, -0.4, -0.32, 0.2, 0.03, 2.09, 0.84, 0.76, 2.82, 2.26, 0.83, 0.06, -0.47, -0.94, -0.27, -1.86, -2.14, -1.4, -0.5, -0.57, -0.97, -1.05, -0.41, -0.74, 0.95, 1.51, 2.77, 1.41, 0.47, 1.07, 2.11, 1.99, 3.85, 4.17, 6.02, 4.76, 5.2, 4.1, 4.85, 2.75, 1.95, 1.55, 2.94, 3.47, 4.41, 1.24, 2.72, 3.44, 4.19
3.64, 3.01, 1.7, 1.2, -0.95, -0.12, -1.26, -0.67, 0.13, 0.56, 0.41, 0.63, 0.13, -0.98, 0.32, 0.12, -0.28, 0.48, 1.69, 0.44, 0.69, -0.88, -1.13, -0.66, -4.38, -4.29, -4.27, -3.9, -3.46, -2.46, -1.44, -0.84, -0.53, -0.78, -0.09, 1.41, 1.21, 1.04, 1.98, 2.12, 2.03, 0.59, 0.44, -1.23, -2.74, -2.15, -2.46, -1.88, -0.86, -0.69, -1.46, -1.79, -2.74, -1.74, 1.07, 1.28, 2.03, 1.95, 2.05, 1.22, 0.37, 1.58, 2.89, 4.1, 5.56, 5.24, 4.02, 3.01, 3.7, 2.9, 3.57, 2.19, 2.86, 4.2, 4.28, 4.5, 3.71, 1.97, 4.71
4.29, 2.63, 1.94, 2.13, 1.43, 0.61, -0.06, -0.82, 0.4, -0.92, -0.82, -0.1, -0.82, -0.04, -0.04, -0.3, -0.14, -1.56, -0.39, -0.53, 1.17, 0.06, -0.26, -0.48, -2.43, -3.33, -3.38, -3.63, -3.49, -3.75, -1.84, -1.21, -0.71, 0.8, -0.52, -0.66, 0.61, 1.21, 1.7, 2.74, 0.54, -0.24, -1.52, 0.52, -2.01, -2.07, -3.76, -2.21, -0.87, 0.32, -0.58, -0.26, -1.63, -1.09, -0.18, 0.12, 1.08, 1.3, 1.77, 2.52, 0.33, -0.85, 1.1, 2.47, 4.04, 4.67, 4.47, 2.98, 4.15, 3.53, 1.87, 1.89, 3.57, 4.93, 2.92, 4.61, 5.7, 5.45, 4.54
3.78, 2.08, 2.9, 2.63, 0.27, 0.64, -0.59, 0.93, 2.3, 0.7, -0.91, -0.62, -0.6, 1.22, -0.54, -0.4, -2.15, -1.73, -1.02, -0.23, 0.48, 2.02, 0.12, -0.88, -2.69, -3.01, -2.28, -3.68, -3.59, -3.64, -1.25, -1.22, -2.79, -2.49, -1.54, -2.04, -0.71, 0.9, 1.6, 1.17, 1.01, 1.61, 0.23, 0.3, 0.36, 0.16, -1.46, -2.7, -3.25, -2.47, -1.62, -0.88, -0.99, -1.21, -0.5, -1.76, 0.69, 0.44, -0.69, 0.73, 0.66, -0.6, 0.63, -0.25, 0.31, 1.02, 4.27, 5.41, 4.46, 4.22, 2.6, 3.46, 3.5, 2.24, 2.51, 3.25, 4.48, 3.28, 2.6
2.34, 3.2, 2.94, 2.79, 0.83, 0.74, 1.66, 1.3, 0.76, 2.7, 0.89, -1.79, -1.16, -1.35, -0.95, -1.45, -1.85, -1.78, -3.2, -0.35, -1.42, 1.15, 1.02, 0.53, -1.45, -0.97, -2.04, -0.95, -2.61, -1.71, -1.35, -2.47, -2.01, -1.91, -2.59, -3.31, -2.27, 0.43, 0.43, 0.81, 0.91, 3.09, 2.29, 1.3, 0.52, 0.9, -1.14, -2.31, -3.29, -2.75, -2.09, -1.49, -0.38, -1.07, -1.2, -1.81, -0.61, -1, -1.8, 0.38, 0.07, -0.23, 0.87, -0.34, 1.44, 1.07, 1.01, 3.05, 3.81, 4.02, 3.86, 3.16, 2.27, 1.57, 1.66, 1.91, 4.28, 4.19, 2.02
2.93, 3.06, 3.19, 1.31, 0.85, 0.8, -0.47, 0.42, 0.63, 3.5, 0.93, -0.72, -2.27, -1.81, -1.68, -0.63, -1.11, -3.04, -5.07, -2.03, -1.88, 1.44, 1.37, 0.57, -0.72, -0.45, 0.05, -1.38, -1.8, -1.57, -3.13, -4.4, -2.98, -2.67, -2.58, -1.96, -2.12, -1.7, -0.4, 2.15, 1.54, 1.84, 3.6, 1.41, 0.96, 0.93, -0.08, -2.07, -2.07, -2.3, -2.7, -1.91, -0.9, -2.46, -1.95, -1.86, -2.4, -2.81, -1.65, -0.6, 1.04, 0.51, -0.22, -1.07, -0.84, -1.15, -0.73, 1.6, 2.81, 1.46, 0.81, 2.01, 2.37, 2.42, 2.04, 2.82, 4.86, 6.26, 6
2.92, 3, 4.1, 3.29, 3.79, 3.77, 1.69, 1.7, 1.77, 4.15, 2.26, 2.71, 0.14, 0.38, 0.05, -0.09, 1.01, -2.38, -3.74, -3.57, -2.69, 0.1, -0.96, -0.15, -0.07, -0.32, -0.98, -1.09, -3.07, -2.67, -2.9, -3.67, -3.25, -4.9, -5.46, -5.28, -1.98, -1.45, -1.51, -1.41, 0.23, 1.3, 3.37, 2.56, 2.14, 1.62, -0.9, -1.62, -1.29, -2.98, -2.79, -0.48, 1.15, -1.13, -3.36, -2.42, -2.6, -4.69, -3.46, -2.35, -1.41, -0.44, -0.47, -0.59, -0.91, -1.12, -0.8, 2.03, 0.75, 2.35, 1.24, 2.22, 1.39, 2.49, 2.08, 2.45, 3.62, 5.25, 4.93
2.41, 3.56, 5, 4, 3.1, 3.02, 2.47, 2.75, 0.72, 0.68, 1.63, 2.66, 1.2, 0.78, 1.99, 0.39, 0.7, 0.13, -1.8, -2.27, -3.45, -2.64, -1.78, -2.47, -1.96, -0.42, -1.78, -0.34, -1.35, -1.42, -3.54, -3.28, -4.72, -5.02, -5.08, -5.91, -5.73, -3.27, -2.51, -2.8, -1.52, -0.52, 1.48, 2.51, 2.38, 1.61, 0.36, -1.99, 0.27, -1.17, -1.21, 0.27, -0.73, -0.94, -2.13, -2.81, -2.84, -3.67, -2.39, -3.31, -1.29, -0.93, -0.84, -0.92, -0.5, -2.51, -1.65, 1.34, 1.21, 2.46, 1.38, 1.39, 1.04, 3.37, 1.79, 1.13, 2.42, 3.87, 4.16
0.64, 0.3, 0.66, 0.65, 1.87, 2.11, 1.77, 2.56, 3.03, 2.06, 3.55, 2.5, 1.59, 1.28, 1.5, 1.75, 1.67, -0.93, -3.18, -2.73, -3.42, -3.22, -2.87, -2.13, -2.81, -1.66, -2.29, -0.86, -2.55, -1.15, -0.57, -3.34, -2.56, -2.06, -3.68, -6.19, -6.81, -4.62, -4.28, -3.54, -0.89, -0.52, -1.14, 0.97, 1.34, 1.25, -0.57, -1.52, -1.08, -0.52, -0.61, -0.32, 0.03, 0.81, -0.66, -1.71, -1.93, -3.69, -2.07, -2.67, -1.95, -1.35, -2.62, -2.33, -2.34, -2.46, -2.77, -1.75, 0.11, 1.01, 1.5, 3.31, 2.21, 2.78, 1, 2.08, 2.33, 1.79, 2.05
-0.03, 0.28, 1.82, 2.32, 2.07, 3.55, 3.92, 3.88, 3.29, 4.59, 2.6, 2.4, 2.28, 2.01, 1.77, 1.57, 1.41, -0.01, -0.18, -1.45, -3.71, -2.92, -3.22, -2.47, -4.52, -2.39, -2.72, -2.15, -0.71, -1.04, -1.61, -3.5, -1.07, -1.35, -2.92, -4.51, -5.58, -3.55, -2.86, -4.71, -2.92, -0.93, -1, -1.53, -1.16, 0.21, 0.41, -0.3, -1.41, 0.27, 1.16, 0.84, 0.43, 0.37, -0.12, -1.55, -1.71, -2.7, -1.86, -2.4, -3.09, -3.88, -3.27, -4.67, -4.29, -1.61, -3.22, -2.13, -2.91, -2.4, -0.76, 1.36, 2.29, 3.58, 1.07, 1.62, 3.5, 2.71, 1.19
-0.43, -0.05, 2.23, 4.06, 2.12, 2.16, 2.94, 1.54, 1, 1.53, 0.51, 0.77, 0.74, 1.36, 0.53, 2.45, 3.18, 1.03, -1.32, -2.11, -1.29, -2.03, -4.48, -1.75, -1.82, -1.1, -1.91, -2.1, -1.36, -1.4, -0.17, -1.71, -1.24, -2.16, -0.72, -2.77, -5.03, -4.34, -3.6, -4.58, -4.34, -2.88, -1.52, -2.22, -2.7, -3.1, -1.38, -1.33, -1.2, -0.23, 1.38, 2.11, 0.97, 0.81, 0.93, -0.47, -1.2, -3.25, -2.94, -2.68, -2.59, -2.48, -4.45, -4.7, -6.46, -4.04, -4.41, -2.5, -3.71, -3.96, -3.2, -0.33, 2.78, 3.18, 1.73, 0.75, 2.88, 2.06, 3.58
1.31, 0.64, 0.85, 3.7, 3.53, 3.17, 2.1, 2.35, 0.67, 1.1, -0.38, 0.19, 2.31, 2.1, 2.36, 3.89, 5.34, 2.99, 0.85, -1.17, -1.24, -1.74, -2.12, -1.61, -1.04, -1.22, -1.58, -1.75, -1.33, 0.27, 0.08, -0.72, 0.64, 0.93, -0.97, -0.54, -1.48, -2, -1.25, -3.33, -3.35, -3.4, -2.2, -1.82, -2.77, -4.88, -1.59, -3.17, -3.41, -1.57, -0.95, -1.03, -1.61, -0.85, -0.59, -0.51, -0.48, -1.91, -2.84, -3.38, -3.38, -3.36, -3.82, -4.25, -5.36, -2.76, -3.25, -3.94, -2.42, -3.22, -3.23, -1.82, 0.35, 0.58, 2.21, 2.74, 1.68, 1.59, 4.49
1.67, 1.33, 1.08, 2.82, 3.23, 1.95, 1.41, 1.89, 1.19, 1.14, 0.41, 1.71, 2.09, 1.29, 0.48, 2.04, 3.68, 4.64, 3.76, 1.13, 0.64, -0.42, -0.63, -3.04, -2.54, -3.22, -2.11, -2.22, -1.39, -0.33, -0.63, 0.3, 1.03, 0.98, -0.86, 0.69, -1.75, -3.21, -1.66, -2.46, -3.48, -1.78, -2.61, -0.59, -3.49, -4.52, -2.95, -2.54, -2.98, -2.67, -1.03, -1.94, -2.05, -1.84, -0.09, 1.16, 0.79, -2.55, -2.74, -2.96, -3.9, -3.78, -2.47, -3.72, -5.12, -4.18, -4.06, -2.21, -1.52, -2.49, -2.23, -0.86, 0.38, -0.33, -0.19, 1.59, 1.75, 1.25, 2.41
1.67, 0.39, -0.53, 1.96, 2.54, 0.89, 1.79, 3.25, 0.35, -0.34, 0.93, 1.33, 1.5, -0.17, -1.18, 1.18, 2.25, 3.51, 2.81, 0.78, 0.92, -0.66, 0.17, -0.33, -1.46, -4.15, -3.43, -4, -2.06, -1.19, -1.6, 1.25, -0.11, -1.22, -1.24, -0.2, -1.11, -0.22, -0.76, -1.39, -1.97, -2.02, -2.91, -2.12, -2.44, -3.48, -3.26, -3.9, -4.71, -3.29, -2.95, -1.79, -2.01, -1.87, -0.91, 0.19, 0.08, -1.22, -0.03, -1.47, -2.03, -1.11, -1.88, -3.58, -3.26, -3.74, -3.57, -2.94, -2.58, -2.62, -2.43, 0.16, -0.29, 0.03, -0.11, 0.73, 2.85, 2.06, 2.59
1.98, 0.58, -0.06, 2.13, 2.52, 1.72, 1.82, 2.8, 0.92, -1.07, -0.06, 2.33, 3.72, 3.15, 1.3, 0.44, 0.4, 0.88, 3.19, 2.13, 2.78, 1.06, -0.66, -2.26, -3.38, -3.62, -3.53, -2.24, -0.32, -0.71, -0.77, 0.72, 0.34, -0.27, -2.23, 0.51, -1.63, -1.64, -2.77, -0.34, -2.09, -4.04, -3.3, -2.55, -1.8, -2.37, -1.57, -2.62, -3.71, -4.06, -4.94, -2.57, -2.19, -1.98, -1.82, 0.72, -1.17, -2.82, -3.05, -2.66, -1.84, -1.45, -0.78, -3.63, -1.81, -2.62, -2, -4.34, -4.46, -3.54, -3.49, -1.76, -1.01, -0.51, -1.55, 1.56, 0.86, 0.95, 1.79
2.2, 0.18, 1.96, 2, 4.06, 2.63, 2.54, 2.77, -0.02, -0.21, 1.11, 0.38, 2.28, 1.69, 2.76, 1.96, 1.42, 3.1, 1.56, 1.48, 4.13, 1.52, 0.41, -2.03, -3.67, -3.66, -4.89, -5.4, -3.31, -2.96, -1.86, -1, 0.25, -0.03, -2.27, -2.47, -1.15, 0.48, -1.02, -0.5, -1.3, -1.77, -3.22, -4.67, -3.23, -2.67, -3.35, -3.45, -3.85, -4.7, -4.94, -4.25, -3.18, -1.51, -1.72, 1.26, 0.06, -1.31, -2.15, -1.47, -0.77, -0.74, -0.87, -3.25, -2.15, -1.71, -1.85, -1.98, -5.09, -3.58, -3.7, -2.73, -3.35, -2.27, -1.91, -0.16, -0.87, -1.3, 1.8
2.6, -0.22, 0.46, 0.87, 1.36, 0.21, 2.05, 2.43, 1.31, -0.88, 0.13, 2.16, 2.56, 3.01, 2.89, 0.45, -0.45, 1.82, 1.67, 2.3, 3.87, 1.68, 1.09, -0.71, -2.8, -4.69, -5.33, -5.75, -5.75, -2.84, -1.24, -1.08, -0.25, -0.95, -1.66, -2.81, -1.98, -2.21, -1.61, -0.63, -1.01, -1.12, -2.14, -4.89, -6.01, -4.33, -3.8, -5.19, -3.88, -2.84, -5.64, -5.12, -3.7, -2.68, -2.92, -0.79, -1.72, -0.26, -1.24, -2.21, -2.46, -1.54, -1.13, -2.2, -1.96, -3.18, -0.56, 0.36, -4.1, -4.25, -3.27, -1.8, -2.63, -4.36, -4.62, -4.14, -2.67, -0.39, 0.7
3.81, 2.39, 3.33, 1.99, 3.49, 1.88, 1.27, 0.67, -0.63, -1.22, -1.49, 1.72, 2.64, 1.39, 3.53, 0.07, -1.95, 1.79, 3.5, 3.58, 2.74, 2.15, -0.31, 0.68, -1.73, -2.79, -3.99, -5.99, -4.5, -3.9, -0.69, -0.95, 1.3, -1.4, -1.51, -2.26, -1.5, -1.29, 0.14, -2.22, -1.54, 0.26, -1, -2.95, -3.38, -5.7, -4.4, -2.84, -1.46, -2.15, -3.85, -3.3, -5.11, -3.82, -3.51, -2.2, -1.29, 0.53, -1.87, -2, -0.75, -1.4, -1.26, -0.69, -0.75, -2.59, -0.41, 0.18, -2.04, -1.82, -2.55, -0.62, -0.45, -1.16, -1.71, -2.91, -3.8, -2.19, -0.55
3.33, 2.16, 2.78, 1.53, 2.64, 1.64, 2.7, 0.83, -0.92, 0.42, -0.88, 0.41, 1.62, 0.97, 2.03, 2, 0.11, 1.94, 2.86, 3.1, 4.45, 2.36, -0.92, -0.2, -2.42, -1.91, -3.53, -4.7, -6.48, -3.21, -1.9, -0.19, 2.47, 0.52, 1.04, -0.61, -0.94, 0.71, 0.73, -0.67, -1.34, -0.46, 0.79, -0.8, -2.48, -2.79, -2.21, -2.53, -0.5, -1.37, -2.94, -2.36, -3.4, -3.12, -3.88, -3.07, -2.28, -0.99, -1.12, -3.27, -2.15, -0.7, -0.99, -0.83, -0.07, 0.29, 1.24, 0.5, -1.11, -1.95, -2.68, -1.72, -1.07, -0.34, -0.67, -0.25, -3.89, -3.05, -1.62
2.8, 3.31, 3.21, 2.89, 2.67, 3.91, 2.29, 1.87, 1.11, 0.81, -0.78, -0.78, 0.47, 2.01, 2.59, 1.1, 0.6, 1.06, 2.52, 2.72, 3.05, 2.06, -0.23, -0.12, -1.95, -2.55, -1.41, -2.85, -5.65, -3.27, -2.58, -1.37, 1.29, -0.79, -1.3, -1.06, -0.37, 0.1, -0.62, 0.81, -0.67, -0.79, -0.04, -0.68, -1.53, -2.75, -1.25, -1.72, -1.38, -0.58, -1.12, -3.23, -1.36, -3.33, -3.94, -5.12, -3.89, -2.39, -1.62, -2.76, -2.26, -1.49, -0.5, -0.56, -0.85, 0.97, 2.01, 1.23, 0.17, -0.67, -2.75, -2.23, -2.96, -1.64, -1.53, 0.01, -2.78, -3.76, -1
4.78, 4.23, 3.07, 2.7, 1.63, 4.74, 2.48, 2.55, 1.5, 0.67, -0.27, 0.72, 0.02, 0.33, 1.46, 1.17, 1.47, 1.25, 2.05, 3.37, 3.99, 3.37, 2.54, 0.44, -0.7, -1.61, -0.85, -2.16, -3.67, -3.58, -3.73, -2.48, -0.53, -0.71, -1.16, -1.65, -0.78, 0.06, -0.29, 1.69, -0.1, -0.45, -0.23, -0.02, -0.75, -0.28, -1.82, -1.94, -1.34, -0.51, -1.45, -2.34, -1.64, -2.33, -2.81, -4.15, -5.71, -5.47, -3.6, -2.79, -3, -2.22, -1.08, -1.86, -1.6, -0.55, -0.15, 0.42, 0.18, -1.73, -1.99, -2.28, -2.28, -2.68, -1.67, -0.98, -1.51, -2.77, -2.07
3.54, 2.21, 1.94, 2.13, 2.46, 3.67, 3.07, 2.85, 2.25, 1.53, 0.68, 0.38, -0.44, 1.03, 2.36, 0.35, 2.31, 2.31, 1.58, 4.23, 4.06, 3.74, 3.16, 0.06, -0.45, -2.09, 0.19, -0.78, -3.94, -4.68, -5.07, -3.48, -3.93, -3.8, -1.83, -2.12, -1.45, -0.23, 0.48, 1.28, 0.95, -0.72, -0.47, -0.36, -0.14, -0.96, -1.03, -1.37, -2.99, -3.02, -0.58, -0.71, -1.17, -1.6, -2.27, -3.32, -4.45, -6.28, -5.81, -5.56, -3.01, -1.24, -3.11, -3.38, -2.49, -3.37, -3.12, 0.23, -1.56, -1.81, -1.76, -3.95, -3.51, -1.55, -3.19, -2.04, -2.32, -2.7, -1.05
1.86, 3.9, 3.59, 3.34, 3.36, 1.55, 2.36, 1.32, 1.72, 2.63, 2.06, 0.72, 0.52, 0.2, 0.09, 2.07, 0.36, 1.61, 1.26, 2.74, 3.92, 5.21, 4.8, 4.32, 1.93, -0.15, 0.54, 0.02, -1.92, -2.76, -5.79, -4.69, -6.21, -4.99, -3.53, -2.82, -2.18, -1, 1.17, 1.88, -0.35, -0.5, -0.33, -0.29, -2.04, -0.97, -2.26, -2.33, -2.43, -4.59, -3.78, -2.09, -1.65, -3.46, -3.76, -3.5, -3.83, -3.99, -5, -6.36, -4.73, -1.04, -2.88, -3.12, -3.86, -4.35, -4.44, -0.8, -2.25, -1.37, 0.08, -1.76, -2.52, -1.86, -1.71, -0.09, -1.19, -1.93, -1.49
1.86, 2.75, 3.78, 2.53, 4.87, 3.24, 2.9, 3.8, 2.67, 1.32, 2.45, 1.55, 1, 0.69, 2.2, 2, -0.3, 0.66, 1.94, 2.56, 1.57, 1.54, 4.22, 4.48, 1.5, 1.51, 2.45, 2.54, -0.22, -1.5, -3.46, -4.13, -4.25, -2.77, -1.46, -2.15, -3.94, -2.85, 0.23, 0.58, -1.32, 0.49, 0.06, -0.3, -0.66, -0.48, -0.47, -0.95, 0.21, -1.25, -3.97, -3.02, -2.43, -1.45, -2.74, -1.82, -2.21, -3.66, -4.3, -5.37, -4.14, -2.92, -3.6, -2.04, -3.57, -4.47, -4.44, -3.05, -2.6, -1.61, -1.45, -3.26, -1.92, -1.87, -2.14, -2.52, -2.51, -2.23, -1.86
1.98, 2.61, 3.32, 4.27, 5.4, 4.18, 1.79, 2.78, 1.89, 0.03, 2.28, 2.12, 0.91, -0.02, 1.47, 0.84, 0.64, 1.31, 2.3, 2.32, 2.2, 1.87, 2.15, 3.72, 2.31, 3.22, 2.89, 0.99, -0.07, -0.97, -2.18, -3.41, -3.79, -4.16, -3.62, -2.07, -1.21, -0.52, -1.73, -0.66, -2.03, -1.62, 0.58, 0.25, -0.86, -0.72, -0.93, 1.05, 0.04, -0.56, -3.14, -1.12, -0.75, -2.86, -4.44, -3.69, -3.1, -3.65, -4.01, -4.76, -5.23, -5.57, -4.43, -2.68, -4.27, -4.21, -5.84, -3.76, -3.18, -2.12, -0.35, -2.94, -1.64, -3.17, -1.41, -2.38, -1.05, -1.57, -1.67
2.04, 2.08, 3.57, 5.29, 6.03, 5.55, 3.65, 1.59, 2.26, 1.02, 3.12, 1.67, 1.29, -0.74, 0.36, 0.69, 1.28, 1.29, 2.51, 2.36, 3.09, 2.51, 0.79, 1.04, 1.94, 2.42, 2.97, 1.14, 0.04, -0.43, -0.06, -0.98, -1.5, -2.81, -2.91, -1.69, -2.27, -0.24, -0.55, -0.43, -1.21, -2.24, 0.43, 0.9, 1.54, -0.52, -1.38, 0.07, 0.31, -0.3, -1.72, -0.6, -2.56, -3.81, -2.17, -2.15, -4.17, -2.99, -3.56, -3.14, -4.19, -5.87, -5.15, -4.03, -2.95, -3.02, -4.07, -2.46, -2.77, -2.88, -1.63, -3.62, -2.43, -3.4, -3.4, -3.73, -3.98, -2.57, -2.62
2.18, 2.01, 2.28, 3.89, 5.21, 5.7, 3.28, 1.41, 2.97, 2.45, 2.75, 3.08, 1.57, 0.24, 2.16, 0.6, 1.25, 1.57, 2.05, 3.32, 4.73, 4.23, 4.18, 2.08, 1.59, 3, 3.11, 2.12, 1.06, -1.4, 0.42, -1.56, -1.68, -1.95, -3.69, -2.9, -2.58, -0.36, -1.12, -0.77, 0.65, -2.4, -1.12, -1.63, 1.62, 1.27, 0.86, 0.47, -0.74, -0.26, -0.42, -1.43, -1.94, -2.28, -2.29, -3.85, -4.21, -3.54, -5.48, -4.34, -3.93, -3.07, -3.77, -4.35, -2.67, -4.22, -5.04, -3.77, -3.31, -2.92, -2.85, -3.43, -0.93, -2.54, -3.44, -3.59, -3.79, -3.08, -1.89
2.45, 2.22, 0.83, 1.52, 3.69, 4.77, 5.28, 3.34, 2.29, 3.05, 4.49, 3.75, 4.15, 1.16, 1.95, 1.23, 0.6, 1.44, 0.96, 2.62, 4.92, 4.55, 4.43, 3.09, 2.64, 2.3, 2.7, 0.8, 1.37, -0.23, -0.98, -1.25, -0.18, -1.31, -2.52, -3.98, -2.58, -2.53, -0.65, -2.36, -1.08, -1.74, -3.41, -2.83, -1.03, 0.22, 0.54, 0.54, -0.42, -1.28, -0.76, -1.38, -2.99, -3.24, -2.37, -2.83, -3.53, -5.1, -5.38, -3.21, -3.33, -1.3, -2.56, -3.63, -3.86, -2.1, -5.42, -4.61, -2.47, -0.89, -2.28, -1.06, -2.63, -1.96, -2.41, -3.23, -3.32, -3.22, -1.01
2.69, 0.85, -0.25, 1.2, 3.92, 2.53, 3.1, 2.91, 2.36, 2.7, 5.29, 3.8, 5.75, 4.85, 3.28, 2.54, 0.84, 1.14, -0.59, 1.23, 2.73, 4.24, 4.34, 1.72, 1.31, 2.39, 2.66, 0.95, 1.17, 0.63, 0.2, 0.16, -0.12, -1.98, -2.33, -3.24, -4.75, -2.88, -1.71, -1.87, 0.39, -0.82, -1.55, -1.5, -0.32, -0.16, 1.97, 1.38, 0.97, 0.83, 0.11, 0.99, -2.99, -1.68, -1.91, -2.38, -3.12, -2.81, -3.87, -3.41, -3.95, -3.42, -1.48, -2.62, -3.23, -2.91, -5.98, -6.48, -3.08, -1.99, -1.1, -0.54, -0.47, -1.21, -0.69, -1.5, -2.94, -3.35, -2.18
3.1, 1.85, -0.56, 0.7, 2.71, 3.23, 4.65, 3.27, 4.63, 4.2, 3.92, 5.26, 6.38, 5.41, 5.89, 4.22, 2.42, 1.78, -0.88, -1.29, 0.28, 1.97, 3.15, 3.39, 1.96, 2.19, 1.62, 2.82, 2.16, 0.18, 0.17, 1.43, 2.26, 0.3, -0.28, -1.6, -3.18, -2.9, -1.43, -2.13, -2.29, 0.3, 0.81, 1.61, 0.25, -0.76, 1.1, -0.66, 0.31, 0.46, -1.52, -0.14, -1.58, -2.14, -2.03, -0.27, -1.78, -1.89, -2.89, -4.08, -5.8, -4.63, -4.85, -3.8, -3.1, -2.83, -4.84, -5.2, -4.23, -3.47, -0.3, -1.87, -1.47, -3.2, -1.97, -1.45, -2.14, -2.67, -2.43
1.82, 1.73, -0.54, 0.08, 1.42, 3.84, 4.61, 2.46, 3.23, 4.23, 5.51, 5.34, 5.65, 5.15, 6.34, 5.34, 3.06, 2.34, 0.83, -0.23, -0.01, -0.77, 1.04, 0.58, 1.3, 1.34, 1.47, 2.09, 0.82, 1.6, 2.23, 1.26, 2.67, 1.46, -0.57, -1.09, -2.11, -1.12, -3.12, -1.49, -1.98, -0.78, -0.04, 2.08, 1.16, -0.65, 0.15, -1.47, -1.5, -0.91, -1.09, 0.25, 1.02, -2.22, -1.99, -1.12, -1.06, -1.14, -1.44, -2.55, -4.11, -4.3, -3.44, -3.47, -3.32, -1.24, -3.75, -3.44, -4.09, -5.01, -2.55, -2.05, -1.73, -3.15, -2.56, -0.46, -1.28, -1.95, -2.68
0.74, 0.23, -0.15, 0.62, 1.08, 2.47, 3.14, 2.8, 3.21, 3.88, 5.11, 5.55, 4.6, 4.3, 5.66, 5.27, 4.16, 3.7, 1.8, 0.1, 1.77, 1.49, 1.01, 1.36, 2.6, 2.68, 2.39, 1.48, 1.71, 2.14, 1.99, 1.59, 1.31, 0.01, -1.04, -1.92, -0.18, 0.49, -1.26, -0.88, -0.66, -0.92, -0.46, -0.02, -0.32, -0.27, 0.52, -0.51, -1.44, -3.05, -2.25, -0.94, -0.16, -0.43, -1.2, 0.59, 0.01, -0.42, -0.89, -1.42, -2.49, -3.89, -5.16, -5.43, -5.38, -2.99, -4.74, -4.24, -3.51, -4.23, -3.44, -2.68, -1.83, -2.33, -2.09, -1.06, -2.54, -0.34, 0.02
2.51, 0.73, 1.73, 1.43, -0.37, 0.24, -0.27, 1.92, 1.53, 3.04, 2.75, 3.06, 2.41, 5.21, 5.46, 5.43, 5.08, 6.27, 4.13, 2, 1.26, 0.41, -1.24, 0.72, 1.57, 2.41, 2.22, 1.83, 1.14, 2.16, 3.36, 0.96, 1.13, -0.26, -0.22, -0.77, -0.47, 0.01, 0.03, -0.46, -1.21, -0.73, -0.84, -0.58, -1.03, -0.52, 0.17, 0.6, 0.24, -1.4, -2.96, -2.31, -2.62, -2.36, -1.64, 1.1, 0.37, 0.01, -0.23, 0.51, 0.27, -0.53, -2.35, -3.09, -4.51, -5.01, -5.55, -5.86, -3.85, -4.03, -2.32, -1.16, -2.2, -2.7, -2.08, -1.08, -0.8, -0.6, -0.66
2.33, 0.16, -0.81, 2.1, 0.65, 0.72, 0.21, 2.7, 3.07, 1.95, 2.07, 2.52, 2.44, 2.84, 3.92, 4.69, 3.26, 6.76, 5.45, 3.73, 3.96, 2.18, 1.93, 0.02, 1.77, 0.66, 1.03, 1.44, 1.28, 1.72, 2.81, 1.34, 1.24, 2.12, 0.67, 1.41, 1.74, 0.92, 0.51, 0.63, 0.61, 0.42, -0.13, -0.36, -0.72, 0.62, 1.37, 0.7, 0.57, -0.14, -0.6, -0.32, 0.26, -1.56, -1.77, -1.23, -1.94, 0.26, 0.16, 0.32, -1.04, -2.04, -2.34, -2.87, -4.45, -5.07, -4.98, -4.03, -2.58, -4.07, -3.04, -2.03, -2.67, -3.9, -1.74, -2.8, -2.68, -1.7, -1.15
2.57, 0.68, -1.47, 0.31, -1.07, -1.03, -2.28, 0.46, 0.01, 0.85, 2.3, 2.04, 1.87, 2.27, 2.02, 3.66, 2.66, 5.15, 6.44, 6.23, 4.36, 2.51, 2.84, 0.66, 2.81, 1.83, 1.43, 3.17, 2.4, 3.51, 3.16, 2.83, 0.38, 1.56, -0.7, 2.29, 1.58, 0.68, 0.64, 1.16, 1.23, 0.97, 0.42, 0.68, 0.18, -0.31, 0.57, 2.28, 2.45, 0.52, 0.23, -0.47, -1.87, -1.26, -1.12, -1.59, -1.77, -1.06, 0.27, -0.4, -0.21, -1.45, -0.41, -0.39, -2.09, -4.5, -5.04, -4.35, -3.24, -2.13, -0.7, -1.28, -2.29, -2.98, -1.74, -2.23, -2.78, -0.32, -1.22
3.63, 2.63, 0.74, -0.95, 0.82, 1.44, 1.2, 2.29, 1.64, 1.84, 3.04, 3.05, 4.31, 4.18, 1.95, 2.81, 2.74, 4.09, 5.11, 6.38, 3.67, 2.92, 2.9, 0.6, 1.74, 1.04, 1.25, 3.11, 3.71, 5.6, 2.46, 3.23, 0.1, 2.3, 0.31, 0.69, 1.14, 1.9, 1.07, 0.02, -1.25, -0.76, 0.75, -0.03, -0.11, 1.73, 1.15, 2.38, 3.05, 2.02, 2.47, 2.54, 0.33, -0.68, -0.96, -2.11, -0.25, 0.02, -0.6, -2.48, -0.67, -1.86, -1.06, -0.29, -0.85, -2.67, -2.27, -3.74, -3.14, -2.59, -1.37, -3.25, -1.9, -3.42, -2.14, -2.23, -3.3, -2, -1.52
2.62, 1.75, 0.34, -0.3, -0.38, 0.41, 0.66, 1.4, 0.05, -0.11, 2.03, 2.43, 3.9, 5.35, 3.66, 2.66, 4.41, 2.82, 2.38, 5.83, 4.81, 5.71, 4.3, 1.67, 1.7, 1.23, 1.54, 2.28, 1.52, 2.18, 1.99, 4.22, 2.74, 3.07, 1.64, 1.78, 1.54, 1.82, 2.44, 1.2, 1.58, 1.74, 0.72, -1.53, -0.15, 0.71, 1.01, 1.95, 1.21, 1.6, 1.54, 3.95, 1.34, 0.33, -0.97, -1.84, -1.34, -0.53, -0.9, -1.85, -2.98, -4.25, -4.38, -1.53, -1.92, -2.29, -1.74, -0.76, -0.98, -1.9, -1.53, -3, -2.18, -2.8, -2.07, -1.54, -0.85, -1.53, -1.49
2.7, 3.5, 0.57, 0.31, -1.1, -0.58, 0.04, -0.5, -0.23, 1.27, 1.65, 2.09, 3, 3.15, 4.25, 4.51, 3.56, 5.18, 3.94, 3.83, 6.15, 6.03, 5.69, 3, 2.35, 3.09, 2.19, 2.79, 1.95, 2.54, 1.57, 2.82, 1.8, 3.65, 2.21, 0.3, 1.79, 2.92, 3.8, 2.36, 2.28, 2.13, 2.98, -0.12, -0.85, -0.49, 0.34, 2.01, 1.41, -0.06, 0.83, 3.16, 1.09, 0.78, -1.02, -1.33, -2.48, -1.11, -2.3, -2.02, -1.23, -2.94, -3.06, -2.26, -0.3, -1.21, -2.42, -0.15, -0.57, -1.32, -2.39, -2.06, -0.82, -1.3, -1.3, -1.44, -1.15, -1.19, -1.6
2.83, 2.94, 2.74, 2.78, 0.85, 0.79, 2.23, 0.87, 0.35, 2.7, 2.98, 2.49, 2.52, 1.75, 3.59, 2.34, 3.22, 2.91, 3.41, 3.8, 3.67, 5.69, 5.78, 5.49, 3.91, 1.71, 2.96, 3.47, 4.52, 3.52, 2.57, 2.67, 1.43, 2.29, 3.39, 2.75, 1.78, 0.7, 2.18, 2.31, 1.78, 1.95, 1.56, 1.14, -0.02, -0.3, 0.1, 0.29, 0.85, 0.6, 0.98, 0.81, 0.23, -1.43, -2.31, -1.47, -3.36, -0.46, -0.63, -2.51, -0.09, -0.12, -0.43, -0.54, 0.38, 0.01, -2.77, -1.34, -0.64, -0.09, -1.67, -3.8, -3.5, -2.25, -0.11, -1.33, -1.62, 0.08, -2
2.83, 2.44, 3.95, 2.67, 0.26, 0.43, 1.87, 1.3, 1.86, 3.13, 1.81, 2.33, 3.49, 2.5, 3.64, 3.44, 3.31, 3.63, 3.5, 3.59, 2.8, 4.83, 5.85, 5.74, 2.84, 2.61, 2.77, 2.73, 4.7, 4.86, 2.67, 1.07, 1.25, -0.05, 1.75, 2.28, 3.21, 0.12, 2.48, 2.68, 1.13, 1.37, 1.7, 1.81, -0.15, 1.41, 0.24, 0.09, 0.08, 1.5, 2.87, 1.1, 0.69, -0.42, -1.26, -1.46, -2.33, -1.44, -1.03, -2.95, -1.65, -0.09, 0.56, -0.01, 0.42, 0.21, -0.13, 1.14, 1.59, 0.83, -0.09, -1.01, -2.13, -1.98, -1.07, -0.99, -2.17, -0.39, -1.11
3.8, 4.14, 4.07, 5.23, 3.16, 0.6, 0.79, 0.76, 1.3, 2.47, 2.6, 2.31, 2.63, 2.4, 1.96, 0.76, 3.02, 3.33, 4.75, 2.57, 1.49, 3.27, 6.53, 5.58, 3.75, 3.05, 2.4, 2.88, 3.67, 4.44, 3.76, 2.39, 2.68, 1.92, 1.88, 1.73, 2.21, 1.14, 2.83, 2.53, 0.51, 0.01, 0.94, 0.65, -0.35, 0.14, -0.22, 1.06, 0.37, 0.93, 2.11, 1.61, 1.15, -1.47, -1.44, -1.41, -1.87, -3.48, -2.22, -1.32, -1.49, 1.14, 0.98, -0.97, -0.85, -1.43, -1.41, -0.07, 0.79, 0.62, -0.73, -0.94, -1.53, -1.46, -1.21, 0.33, -1.3, -0.98, -1.05
5.71, 4.94, 3.57, 5.09, 4.11, 1.58, 1.18, 1.45, 1.53, 3.87, 1.37, 1.11, 1.88, 1.96, 1.96, 0.23, 0.34, 1.55, 3.21, 1.92, 0.91, 1.12, 3.82, 5.21, 4.48, 4.91, 3.58, 3.22, 3.78, 5.01, 3.28, 3.62, 3.31, 2.85, 0.94, 1.07, 3.6, 2.41, 1.42, 1.92, 1.65, 0.76, -0.31, 1.49, 0.57, -1.21, -0.52, -0.05, -0.89, 0.01, 2.02, 3.02, 1.5, -0.67, -1.08, -1.4, -0.57, -2.14, -2.24, -3.08, -1, 1.72, 1.16, -1.88, -1.01, 0.37, -0.45, -0.04, -1.27, -1.05, -1.6, -0.88, -1.2, -0.73, -2.08, -0.9, -0.9, -0.17, -1.45
6.03, 5.91, 2.93, 4.62, 6.25, 3.72, 2.5, 0.42, 0.46, 1.93, 2.07, 1.02, 1.32, 2.82, 2.17, 1.17, 0.89, -0.16, 0.08, 0.53, 0.72, 2.07, 2.69, 3.88, 4.44, 4.25, 3.29, 4.54, 2.45, 3.93, 4.06, 4.02, 5.18, 4.03, 4.42, 1.9, 1.21, 1.67, 2.9, 4.31, 1.34, 1.22, 1.61, 3.06, 3.24, 1.11, 1.26, -0.45, -0.7, -1.3, 0.59, 1.99, 1.8, 0.28, -0.39, -0.87, -0.77, 0.39, -0.17, -3.6, -2.3, -1.19, 0.52, -1.94, -1.82, 0.92, 0.07, -0.51, -0.83, -0.71, -1.62, -2.68, -3.11, -2.55, -1.44, -1.73, -1.31, -1.16, -1.31
6.75, 6.27, 4.6, 3.12, 5.58, 6.5, 5.84, 2.72, 2.14, 2.22, 1.92, 1.74, 2.23, 3.24, 3.98, 2.57, 1.84, 0.21, -0.61, 0.36, 0.45, 1.98, 2.47, 4.84, 6.21, 5.28, 2.74, 5.16, 5.33, 4.06, 3.81, 3.4, 5.05, 5.02, 4.43, 2.47, 1.81, 2.03, 1.63, 3.16, 1.06, 2.07, 1.45, 2.65, 2.96, 1.94, 0.23, 0.48, 1.69, 0.36, 0.07, 1.11, 1.55, -0.29, -0.34, -0.7, -0.55, -0.68, 0.33, -2.41, -2.28, -0.61, -0.01, -0.75, -2.81, -2.67, -1.23, -0.78, -2.13, -2.59, -1.83, -3.54, -2.85, -1.7, -2.23, -2.17, -0.08, -0.25, -0.58
7.36, 7.68, 6.85, 4.98, 5.38, 6.83, 5.78, 3.11, 2.6, 3.88, 2.83, 0.76, 1.85, 2.59, 3.21, 2.77, 2, -0.06, 0.92, 0.35, 0.4, 0.49, 1.64, 4.16, 6.09, 4.69, 5.44, 5.09, 4.03, 4.3, 4.39, 5.55, 5.02, 4.61, 5.49, 4.28, 4.44, 3.99, 3.86, 3.53, 0.32, -0.17, -0.25, 1.68, 4.19, 3.32, 1.67, -0.29, 1.15, -0.26, -0.25, 0.38, 0.72, -0.07, -0.2, -0.21, -0.32, -2.23, -2.05, -2.3, -1.14, -1.02, -0.37, -0.73, -3.04, -2.63, -1.94, -1.03, -1.53, -2.08, -2.81, -4.05, -3.68, -2.44, -1.78, -3.03, -2.18, -1.06, -0.89
8.13, 6.29, 7.09, 5.97, 4.04, 5.29, 7.33, 5.45, 4.97, 4.43, 4.53, 3.16, 1.07, 1.47, 2.7, 3.99, 2.72, 1.33, 1.8, 1.99, 1.34, 0.46, 0.88, 3.72, 5.86, 6.22, 5.37, 5.68, 2.92, 3.56, 4.45, 3.23, 3.94, 4.28, 6.65, 5.44, 3.32, 4.24, 3.7, 4, 2.34, 1.86, 0.8, 0.95, 1.98, 1.84, 1.28, 0.36, 0.75, 2.07, 0.94, 2.04, 2.45, -0.1, 1.21, 0.91, -0.77, -1.47, -1.88, -2.16, -1.65, -1.03, -0.69, -0.11, -1.58, -2.99, -2.3, -2.31, -0.57, -2.74, -2.94, -3.43, -2.6, -3.45, -2.64, -2.78, -2.46, -3.23, -2.47
8.9, 7.57, 7.35, 6.64, 4.94, 6.7, 7.02, 6.79, 7.61, 7.41, 5.95, 4.56, 3.41, 4.34, 3.53, 2.78, 2.75, 3.17, 2.34, 2.14, 0.88, 1.07, 0.94, 2.68, 4.23, 3.92, 4.81, 6.98, 6.93, 4.52, 3.47, 3.48, 3.26, 2.89, 6.2, 6.42, 3.92, 5.96, 5.91, 4.67, 3.42, 4.12, 3.57, 2.2, 0.63, 2.59, 2.52, 2.65, 1.73, 1.9, 0.21, 0.09, 0.2, 0.31, -0.7, -1.8, -1.37, -1.57, -1.85, -1.96, -1.96, -1.22, 0.61, 0.13, -1.37, -2.88, -2.11, -2.42, -2.46, -2.6, -2.93, -2.97, -2.79, -3.57, -3.36, -2.9, -3.01, -3.47, -1.62
9.41, 7.3, 7.05, 7.61, 8.21, 7.4, 7.95, 6.98, 6.69, 7.1, 7.61, 5.78, 3.63, 4.02, 2.58, 2.54, 2.72, 1.39, 3.69, 4.38, 2.63, 2.12, 0, -0.17, 2.11, 2.17, 3.45, 5.15, 6.5, 4.76, 4.28, 3.88, 3.43, 3.17, 2.9, 5.1, 4.43, 4.2, 5, 5.05, 4.33, 5.32, 5.27, 2.17, 2.12, 1.39, 2.22, 1.69, 1.83, 2.82, 1.51, 1.34, 0.24, 0.34, 0.12, -2.24, -1.92, -1.74, -3.54, -2.75, -2.22, -1.83, -1.27, -0.48, -1.76, -2.41, -1.15, -2.41, -2.39, -2.35, -1.63, -1.27, -2.03, -2.85, -2.58, -3.08, -3.82, -4.09, -4.17
10.75, 10.51, 8.66, 7.64, 8.1, 8.16, 7.62, 5.47, 5.19, 6.03, 6.82, 8.02, 5.85, 3.16, 1.34, 1.91, 2.59, 2.39, 2.04, 4.32, 3.78, 3.2, 3.18, 0.96, 1.53, 1.01, 0.85, 2.66, 5.11, 5.33, 4.79, 4.76, 4.62, 4.43, 2.74, 5.13, 5.32, 2.93, 3.32, 2.26, 3.33, 4.36, 6.04, 4.97, 3.38, 2.59, 1.4, 0.83, 1.22, 4.01, 2.78, 2.8, 1.26, -0.14, -0.53, -2.9, -2.41, -2.51, -2.98, -2.85, -2.34, -1.62, -2.74, -2.91, -0.48, -1.47, -1.66, -2.31, -2.35, -2.07, -1.96, -1.92, -2.01, -1.43, -2.95, -1.25, -2.86, -4.21, -4.04
10.74, 10.4, 9.72, 10.56, 10.26, 8.52, 8.37, 6.67, 6.19, 6.01, 6.99, 7.25, 7.47, 7.02, 3.25, 2.99, 2.77, 2.57, 2.5, 3.42, 3.49, 3.93, 3.61, 3.48, 2.55, 1.78, 1.46, 2.38, 1.95, 4.46, 3.57, 4.19, 4.9, 2.7, 1.18, 3.12, 2.78, 2.85, 3.09, 1.06, 2.2, 3.68, 6.78, 5.14, 5.28, 3.9, 2.8, 1.82, 1.64, 2.69, 2, 2.42, 3.22, 2.92, -0.66, -2.3, -2.08, -1.85, -4.13, -2.55, -2.42, -2.64, -2.74, -2.89, -2.12, -3.55, -2.83, -2.12, -0.87, -3.06, -0.74, -1.37, -1.69, -0.67, -1.83, 0.24, -1.24, -2.49, -1.5
12.57, 11.82, 10.98, 10.61, 10.44, 9.49, 7.07, 6.39, 5.07, 4.41, 5.46, 6, 6.68, 6.75, 6.92, 4.98, 3.17, 1.34, -0.02, 1.23, 2.46, 4.33, 3.18, 3.47, 3.29, 1.38, 3.29, 2.5, 2.43, 3.15, 2.71, 3.19, 2.71, 2.95, 1.62, 2.18, 1.17, 3.42, 4.07, 1.15, 3.59, 2.66, 4.72, 6.19, 6.61, 3.86, 1.34, 0.39, 1.21, 0.24, -0.2, 1.08, 1.47, 2.31, 0.83, 0.19, -0.97, -1.39, -3.28, -2.84, -2.06, -2.24, -3, -3.27, -1.88, -2.98, -1.76, -1.86, -0.86, -1.45, -2.41, -0.98, -2.89, 0, -0.75, -0.75, -1.22, -3.04, -2.31
14.5, 15, 11.29, 11.24, 12.39, 11, 9.42, 9.1, 5.26, 3, 4.23, 5.33, 6.04, 6.18, 7.74, 5.18, 3.73, 2.5, 2.26, 1.55, 1.41, 2.67, 3.33, 3.7, 3.63, 2.42, 2.95, 2.66, 0.58, 0.87, 0.25, 0.45, 0.31, 1.63, 2.65, 3.7, 0.5, 3.12, 5.56, 3.14, 3.71, 3.19, 3.65, 6.18, 6.42, 5.22, 3.13, 1.07, 0.61, -0.25, -1.36, 1.61, 1.54, 2.41, 1.61, 0.79, -1.54, -2.43, -0.92, -0.27, -1.43, -1.83, -2.71, -2, -3.58, -3.2, -2.74, -2.99, -3.03, -4.01, -4.5, -2.11, -3.42, -0.77, -1.27, -0.48, -0.88, -3.7, -3.07
14.5, 15.31, 14.66, 12.81, 13.53, 13.47, 11.86, 12.1, 7.7, 3.96, 4.06, 5.37, 5.86, 7.15, 6.08, 5.61, 6.66, 4.56, 2.62, 2.2, 1.53, 2.55, 2.97, 5.09, 3.17, 3.08, 3.56, 3.11, 1.9, 1.02, 0.64, 0.15, 1.25, 1.97, 2.8, 3.28, 1.88, 2.5, 5.18, 3.27, 4.16, 2.51, 1.45, 2.8, 3.89, 4.56, 4.74, 3.89, 0.4, 0.12, -1.06, -0.08, 0.88, 0.98, 0.26, 0.34, -0.61, -2.58, -3.62, -2.44, -3.31, -2.69, -3.62, -4.55, -4.35, -2.63, -3.32, -4.5, -3.43, -3.77, -5.72, -4.44, -2.85, -0.43, -0.93, 0.21, 0.33, -2.83, -1.49
14.51, 13.49, 14.07, 14.02, 15.34, 14.21, 11.72, 10.47, 9.34, 7.85, 4.91, 4.84, 7.05, 8.15, 7.14, 6.58, 5.82, 5, 3.65, 2.85, 1.01, 2.75, 2.96, 3.13, 3.13, 2.5, 3.37, 3.12, 1.61, 0.75, 1.4, 0.26, 1.65, 1.07, 3.77, 3.54, 2.97, 2.79, 4.31, 3.85, 3.9, 4.18, 2.79, 2.89, 3.31, 4.3, 2.88, 2.67, 0.79, 0.51, -0.52, -0.71, 0.12, 1.93, 2.23, -0.29, -0.31, -3.25, -3.43, -2.91, -2.69, -2.64, -3.33, -3.94, -6.06, -2.36, -2.56, -2.79, -4.59, -5.37, -5.72, -3.23, -3.08, -2.42, -1.69, 1.25, 1.03, -0.91, -1.16
13.76, 12.87, 14.93, 15.29, 16.45, 13.48, 12.95, 13.12, 11.11, 11.23, 6.8, 6.7, 7.02, 7.62, 8.07, 6.7, 5.03, 5.19, 5.91, 3.81, 0.69, 2.33, 2.36, 1.13, 2.18, 2.05, 3.25, 2.14, 1.98, 1.26, 1.8, 0.77, 1.22, 1.02, 2.71, 1.91, 3.02, 3.81, 4.49, 3.98, 5.1, 6.05, 4.68, 2.98, 2.38, 4.21, 2.87, 1.3, 2.4, 3.01, 2.52, -0.72, 1.42, 2.12, 0.67, 0.83, -0.54, -1.52, -3.76, -2.49, -2.65, -3.07, -3.02, -4.97, -6.59, -3.22, -1.51, -1.79, -1.45, -5.25, -5.47, -4.07, -4.56, -3.31, -4.15, -1.92, -2.04, -1.17, -0.9
13.05, 12.95, 13.86, 14.78, 16.54, 14.35, 12.62, 12.33, 11.33, 12.06, 9.07, 7.27, 7.32, 5.84, 6.95, 7.06, 5.37, 6.37, 6.38, 5.61, 3.08, 2.27, 2.31, 1.24, 3.07, 4.24, 3.69, 3.16, 3.11, 4.09, 3.62, 1.42, 1.93, 3.13, 3.28, 4.17, 5.44, 3.48, 3.05, 3.68, 4.39, 4.45, 3.95, 3.04, 4.02, 4.38, 5.02, 2.96, 2.31, 1.21, 2.38, -0.76, -0.88, -1.23, 0.58, 0.7, -0.44, -0.17, -2.09, -3.14, -2.42, -3.87, -3.6, -5.56, -6.42, -6.6, -4.24, -3.28, -3.33, -4.98, -5.65, -4.34, -2.75, -3.03, -3.67, -2.8, -1.67, -0.77, -0.9
12.42, 13.16, 13.51, 14.15, 15.34, 15.93, 14.45, 12.49, 11.02, 11.65, 9.82, 8.38, 6.18, 6.28, 7.93, 8.35, 5.18, 5.23, 7.05, 4.33, 2.42, 4.05, 5.17, 3.2, 2.64, 3.43, 2.99, 4.82, 3.92, 5.72, 3.21, 0.92, 0.64, 1.12, 2.38, 2.58, 4.44, 3.93, 3.75, 3.71, 4.04, 4.39, 4.72, 3.89, 4.14, 2.31, 2.7, 3.21, 2.37, 1.83, 2.11, 2.51, -0.01, 0.2, 0.44, 0.71, 0.38, 1.55, -2.22, -4.54, -3.47, -4.8, -4.78, -5.42, -5.41, -4.71, -4.77, -4.1, -3.76, -2.63, -5.8, -4.58, -4.45, -3.74, -3.6, -3.81, -3.18, -3.21, -1.97
12.37, 11.91, 12.73, 11.86, 13.48, 15.19, 15.51, 13.79, 12.46, 11.6, 9.5, 8.86, 7.57, 6.93, 7.01, 7.32, 7.88, 8.07, 9.07, 6.98, 3.64, 3.87, 3.98, 3.61, 1.67, 0.95, 1.24, 1.82, 2.77, 4.23, 3.1, 3.55, 1.08, 2.49, 3.76, 3.83, 4.24, 3.75, 3.74, 5.07, 3.57, 2.79, 3.38, 4.14, 5.5, 4.07, 2.72, 2.71, 2.2, 1.96, 1.17, 1.83, 0.5, -1.47, -1.4, -0.28, -0.44, -0.11, -1.65, -3.57, -5.09, -5, -5.45, -7.16, -6.2, -5.44, -5.07, -4.58, -4.15, -5.33, -5.73, -5.1, -5.18, -4.47, -3.5, -1.77, -1.47, -2.22, -0.25
12.18, 12.47, 14, 12.83, 14.34, 15.08, 15.47, 14.21, 13.27, 13.87, 10.58, 11.57, 8.82, 5.97, 6.43, 6.5, 6.42, 7.35, 7.54, 6.49, 4.87, 3.63, 4.96, 3.42, 2.02, 2.02, 0.34, 1.05, 2.35, 3.38, 2.14, 2.81, 1.66, 1.79, 3.34, 5.1, 3.37, 3.76, 4.34, 4.7, 4.85, 4.51, 5.65, 4.26, 4.91, 4.51, 3.49, 2.13, 2.16, 3.59, 2.42, 3.06, 2.08, 0.3, -0.55, 0.92, -0.7, 1.55, -0.61, -1.75, -3.87, -2.72, -2.76, -4.52, -6.37, -6.57, -7.23, -4.12, -4.12, -5.27, -6.21, -5.5, -5.34, -4.98, -4.24, -2.11, -3.29, -2.88, -2.49
10.66, 11.35, 13.61, 15.01, 12.99, 14.1, 16.4, 14.33, 13.74, 12.51, 10.79, 9.92, 10.41, 8.59, 7.83, 7.17, 6.6, 6.91, 5.95, 5.76, 4.45, 4.39, 2.82, 1.78, 1.92, 3.74, 1.91, 1.15, 2.49, 3.48, 2.4, 2.56, 1.82, 2.74, 3.32, 4.68, 2.66, 2.34, 3.33, 4.29, 4.51, 5.46, 4.32, 5.06, 5.85, 5.72, 5.97, 2.33, 2, 3.13, 3.05, 4.15, 3.1, 1.73, -0.38, 0.4, 0.63, 0.55, -0.47, -1.43, -1.75, -2.17, -2.46, -5.45, -6.41, -5.31, -5.57, -5.02, -5.28, -4.25, -3.38, -4.57, -4.21, -4.53, -4.24, -3.18, -4.6, -1.76, -3.41
10.67, 10.97, 12.51, 13.22, 13.11, 12.97, 14.14, 15, 14.6, 14, 10.76, 9.83, 11.3, 9.98, 8.9, 9.03, 7.51, 6.2, 6.63, 6.61, 4.09, 2.61, 3.05, 2.58, 1.94, 1.63, 1.83, 1.29, 0.23, 2.06, 2.55, 2.88, 2.45, 0.83, 1.38, 2.94, 3.16, 4.59, 3.84, 4.81, 4.34, 5.17, 5.73, 4.94, 5.39, 5.26, 6.24, 4.08, 1.78, 2.45, 2.75, 3.41, 1.73, 0.78, 0.2, 0.31, -0.05, 0.37, -0.36, 0.48, -0.25, -1.23, -0.1, -1.16, -3.43, -2.7, -4.23, -5.98, -5.78, -5.02, -5.83, -5.46, -4.63, -6.19, -5.85, -5.48, -5.63, -3.7, -3.55
9.96, 10.12, 11.31, 11.29, 11.81, 13.28, 12.67, 13.47, 12.99, 13.56, 10.64, 11.89, 11.59, 10.85, 10.09, 9.55, 8.44, 7.37, 8.87, 7.74, 4.8, 3.87, 3.78, 3.93, 1.35, 2.43, 1.97, 1.64, 0.98, 1.52, 0.09, 3.04, 2.52, 0.46, -0.82, 1.51, 2.57, 5.22, 2.83, 3.45, 4.35, 3.76, 4.71, 4.84, 4.99, 3.73, 3.7, 3.98, 2.99, 2.67, 1.45, 1.54, 2.41, 1.38, 0.32, 0.32, 0.19, -0.1, 0.08, 0.79, 0.37, -0.39, -0.98, -1.09, -3.43, -3.61, -4.04, -5.94, -7.51, -6.99, -6.4, -5.7, -5.27, -5.83, -4.87, -5.05, -5.39, -3.04, -3.29
11.66, 9.92, 10.03, 11.94, 12.39, 11.34, 11.5, 12.48, 11.12, 11.58, 11.56, 13.27, 12.96, 11.91, 10.98, 10.7, 9.64, 8.16, 9.33, 8.42, 6.58, 4.55, 4.47, 4.02, 3.24, 2.64, 2.4, 1.54, 2.1, 2.53, 1.4, 1.41, 1.71, 3.04, 2.15, 2.38, 2.57, 3.91, 1.62, 2.93, 4.52, 3.79, 3.21, 3.25, 3.71, 4.09, 4.12, 2.43, 1.28, 1.97, 2.27, 2.22, 1.89, 1.72, -0.14, -0.21, 0.34, -1.55, -0.34, -0.91, 0.05, -0.15, 0.03, 0.25, -0.87, -2.2, -3.52, -4.29, -5.41, -7.06, -5.31, -4.84, -6.03, -5.67, -4.17, -5.98, -5.43, -2.35, -2.04
11.54, 11.78, 10.93, 11.68, 11.01, 11.21, 12.73, 11.13, 11.56, 11.56, 9.82, 11.85, 11.08, 13.46, 12.67, 11.71, 10.86, 11.01, 9.33, 10.08, 7.59, 5.46, 5.68, 3.74, 3.93, 3.15, 1.48, 2.89, 2.7, 1.22, 3.12, 2.28, 2.11, 1.65, 2.9, 1.56, 1.01, 3.06, 1.28, 1.93, 3.39, 3.83, 3.94, 4.83, 2.64, 4.14, 4.39, 2.48, 1.88, 0.72, 1.51, 2.46, 2.29, 0.9, -1.32, 1.22, 1.36, -1.41, -0.81, -0.28, 1.03, 0.52, 0.45, -1.32, -2.25, -3.34, -4.15, -2.3, -3.78, -5.56, -7.02, -4.27, -5.11, -5.23, -6.22, -7.7, -6.57, -4.64, -2.93
10.37, 11.08, 10.27, 11.14, 10.83, 9.74, 11.23, 10.98, 10.23, 9.13, 9.83, 10.02, 10.49, 11.31, 11.94, 13.59, 12.16, 12.14, 10.41, 8.91, 7.58, 6.73, 7.42, 5.96, 4.99, 4.47, 2.81, 3.48, 4.01, 2.06, 1.05, 2.57, 2.08, 3.82, 1.87, 2.58, 1.26, 1.03, 1.33, 1.01, 0.74, 2.25, 5.04, 4.51, 4.41, 4.42, 5.28, 4.56, 2.37, 2.31, 2.92, 3.52, 3.08, 2.38, 0.26, 0.5, 0.87, 0.14, -1.86, -2.81, -0.2, 0.22, 0.35, -1.99, -3.73, -3.14, -3.64, -4.14, -4.32, -6.55, -6.21, -6.2, -6.24, -5.25, -5.73, -7.69, -7.57, -6.06, -4.1
10.38, 10.72, 8.84, 9.99, 8.52, 8.97, 10.39, 11.35, 12.23, 10.78, 10.68, 9.86, 8.33, 9.35, 11.02, 13.25, 13.95, 13.94, 12.17, 11.64, 9.56, 7.98, 7.91, 6.63, 6.53, 5.2, 3.38, 3.54, 5.1, 4.02, 3.51, 3.04, 1.68, 3.12, 3.93, 4.69, 3.05, 0.63, 0.38, -1.04, -1.22, 1.4, 2.86, 3.33, 4.42, 3.23, 5.05, 3.5, 2.92, 2.15, 2.86, 3.41, 4.38, 3.38, 2.57, 1.35, -0.39, -0.13, -1.01, -3, -3.18, -1.5, -0.48, -1.26, -4.16, -3.78, -2.21, -2.12, -5.12, -5.82, -5.6, -4.85, -6.07, -5.91, -7.44, -7.37, -7.77, -6.95, -6.43
11.89, 11.87, 8.64, 10.13, 10.05, 8.74, 9.22, 10.31, 10.21, 10.22, 10.99, 10.57, 9.23, 9.26, 10.14, 10.46, 12.37, 14.01, 13.21, 13.29, 13.4, 9.7, 9.7, 6.18, 5.13, 5.81, 2.83, 1.97, 5.01, 4.11, 3.8, 1.98, 1.78, 3.76, 3.56, 3.11, 3.92, 2.72, 1.63, 0.34, 0.06, 1.4, 4.12, 3.27, 2.23, 2.75, 3.8, 4.13, 4.74, 3.33, 1.12, 3.89, 5.16, 4.21, 4.48, 3.08, 1.95, -0.81, -1.89, -2.45, -1.77, -3.06, -1.78, -2.91, -3.31, -3.52, -2.08, -2.68, -2.13, -5.58, -6.84, -6.07, -7.62, -8.72, -8.26, -7.81, -8.59, -8.87, -7.31
11.98, 12.85, 11.95, 12.22, 11.41, 10.36, 9.94, 10.36, 9.95, 10.4, 10.92, 10.81, 9.99, 10.71, 12.04, 9.46, 9.52, 11.41, 11.02, 11.46, 12.31, 9.94, 11.54, 6.88, 5.93, 5.07, 5.43, 3.95, 4.22, 4.98, 4.26, 4.57, 1.49, 1.19, 2.57, 1.72, 1.63, 1.49, 1.43, 0.16, 0.1, 1.03, 4.39, 3.48, 4.48, 5.58, 5, 4.54, 4.79, 4.15, 3.83, 1.99, 3.35, 4.53, 2.54, 2.63, 1.68, 1.26, -1.66, -3.44, -1.69, -2.4, -2.09, -0.58, -0.15, -3.56, -1.37, -3.07, -3.08, -3.86, -3.54, -4.66, -5.5, -7.13, -7.81, -7.91, -8.22, -8.59, -6.51
11.03, 12.09, 10.52, 11.46, 11.85, 11.46, 10.89, 10.02, 9.66, 9.82, 8.83, 11.8, 11.76, 11.43, 11.81, 11.4, 10.59, 9.14, 9.73, 11.7, 12.59, 11.16, 12.73, 11.8, 9.81, 7.04, 4.76, 5.19, 4.82, 4.89, 4.61, 3.32, 2.46, 1.66, 1.17, 0.42, 1.24, -0.01, 0.72, 2.06, 1.91, 1.47, 3.54, 4.44, 4.25, 4.92, 5.02, 3.88, 5.55, 4.9, 4.69, 1.77, 2.42, 2.31, 1.57, 3.41, 1.7, 0.81, 0.13, -0.03, -0.78, -1.59, -1.66, -1.12, 0.78, -1.94, -1.13, -1.48, -0.83, -4.17, -5.04, -4.82, -5.3, -6.31, -8.83, -8.84, -6.99, -6.65, -7.4
10.21, 11.3, 11.42, 12.77, 12.32, 12.48, 12.29, 11.93, 12.27, 10.71, 10.02, 11.69, 13.21, 12.1, 12.32, 11.93, 11.49, 10.9, 10.32, 9.64, 11.17, 11.44, 11.52, 12.69, 10.59, 9.71, 7.68, 4.76, 3.54, 4.23, 3.9, 3.6, 3.55, 2.74, 1.69, 0.31, 0.77, 1.9, 0.8, 1.75, 3.29, 1.24, 2.2, 3.4, 2.93, 5.05, 6.06, 6.14, 4.93, 4.92, 4.82, 3.2, 3.64, 1.5, 0.46, 2.93, 4.1, 2.47, 2.38, -0.01, 0.49, -0.73, -0.97, -1.27, -0.52, -2.92, -2.01, -2.11, -2.04, -2.55, -3.41, -4.12, -5.51, -6.96, -9.22, -7.26, -6.59, -6.62, -7.41
10.72, 11.18, 13.17, 12.65, 11.77, 12.17, 12.13, 11.74, 13.2, 12.49, 10.94, 11.22, 12.01, 11.93, 11.16, 12.61, 11.19, 11.07, 11.01, 8.72, 8.13, 10.21, 12.8, 11.53, 10.76, 10.23, 8.95, 8.09, 5.33, 5.1, 4.34, 2.7, 2.66, 2.9, 2.57, 0.5, -1.01, -1.55, 0.93, 1.25, 2.96, 0.95, 1.72, 1.25, 1.46, 3.04, 4.35, 5.31, 4.88, 4.9, 5.4, 4.32, 5.11, 3.48, 2.47, 2.71, 4.95, 3.71, 3.53, 1.76, 0.65, -0.24, -0.71, 0.1, -1.77, -0.67, -0.44, 0.59, 0.21, -1.68, -2.43, -4.14, -4.79, -6.24, -7.58, -7.33, -6.99, -6.89, -6.46
10.72, 11.05, 12.09, 11.63, 11.67, 10.13, 12.48, 12.11, 13.65, 12.57, 11.76, 9.69, 10.62, 11.26, 11.76, 12.38, 11.8, 11.21, 11.12, 8.91, 8.89, 9.19, 11.42, 12.92, 10.65, 10.72, 8.37, 9.93, 7.99, 6.77, 5.53, 5.76, 4.21, 3.44, 3.11, 0.94, -1.88, -3.15, -0.97, -1.37, 0.53, 0.51, 1.2, 2.35, 0.57, 0.8, 2.68, 4.22, 5.81, 5.35, 6.36, 5.71, 4.34, 4.58, 3.95, 4.15, 4.55, 4.69, 4.16, 2.76, 1.01, 0.53, -0.16, -1.7, -0.72, -1.25, 0.62, 1.58, 0.89, -0.07, -1.17, -2.86, -5.07, -5.7, -6.47, -8.09, -6.87, -7.45, -6.45
10.5, 10.57, 11.35, 11.48, 10.63, 10.49, 12.43, 12, 12.84, 12.67, 12.21, 11.18, 9.44, 10.39, 9.84, 11.02, 11.39, 10.08, 11.46, 11.63, 10.3, 10.2, 10.8, 10.03, 9.48, 11.03, 9.67, 10.59, 10.95, 8.19, 7.18, 6.95, 5.59, 3.09, 1.43, 0.24, -2.09, -4.27, -3.21, -1.65, -0.59, 1.4, 0.94, 1.86, 0.12, 0.58, 1.69, 3.24, 4.53, 3.65, 5.53, 5.57, 4.34, 4.48, 3.62, 3.86, 4.17, 2.77, 4.5, 3.68, 1.92, 1.9, 2.74, 0.56, -1.98, -1.18, -1.17, -1.76, -2.07, -3.04, -1.99, -2.41, -3.74, -6.07, -7.94, -9.46, -9.24, -9.64, -8.05
10.3, 10.33, 9.58, 9.61, 11.31, 10.88, 11.29, 9.84, 11.81, 12.27, 11, 9.44, 9.45, 9.44, 11.33, 11.66, 11.87, 9.23, 9, 11.48, 12.59, 11.4, 11.1, 11.33, 10.44, 11.42, 10.47, 9.85, 8.73, 8.47, 6.79, 6.28, 5.7, 4.4, 3.21, 1.56, -0.3, -2.29, -2.72, -2.18, -1.19, -0.02, 0.46, 0.66, 2.21, 1.53, 1.62, 2.48, 5.49, 5.41, 5.88, 5.68, 4.79, 5.81, 4.71, 4.35, 4.2, 4.1, 4.3, 4.05, 4.61, 5.01, 4.42, 2.32, 0.16, -0.63, -1.05, -1.37, -0.45, 0.11, 0.42, -0.79, -2.65, -3.97, -6.2, -7.16, -7.29, -7.46, -9
9.81, 11.82, 12.28, 10.96, 12.17, 11.77, 9.64, 9.58, 8.97, 10.35, 10.46, 10.05, 11.34, 11.85, 10.87, 10.28, 9.82, 9.52, 7.84, 10.52, 12.11, 12.36, 11.61, 11.11, 10.35, 9.01, 9.41, 9.64, 8.79, 7.82, 8.37, 7.14, 6.43, 5.48, 4.36, 3.58, 2.63, 1.43, 0.35, -0.5, -0.97, -0.5, -0.35, -1.66, 0.06, 2.24, 1.06, 1.77, 3.53, 3.72, 4.88, 5.05, 3.88, 5.68, 4.29, 5.85, 3.81, 2.08, 3.79, 5.66, 5.14, 5.19, 4.85, 1.69, 1.72, -0.11, -2.32, -2.05, -1.24, -1.29, -1.42, -1.95, -1.57, -1.4, -3.36, -5.57, -6.28, -6.95, -7.21
10.14, 10.72, 11.54, 10.26, 13.09, 13.72, 11.78, 10.97, 9.97, 10.08, 8.27, 9.13, 11.49, 11.24, 10.96, 10.62, 9.02, 9.39, 7.6, 9.06, 10.33, 9.42, 11.6, 10.92, 9.16, 7.51, 8.42, 7.94, 9.2, 7.81, 7.83, 7.54, 7.6, 7.83, 7.18, 5.42, 2.66, 3.41, 1.97, 1.72, -0.06, 0.17, -0.05, -2.28, -1.85, 0.26, 1.71, 2.19, 2.85, 4.28, 4.6, 3.9, 3.74, 5.24, 5.51, 7.39, 5.7, 2.79, 1.68, 4.92, 3.11, 4.3, 4.31, 4.87, 4.93, 1.41, -0.4, 0.07, -0.86, -0.51, -1.01, -0.42, -1.06, -1.87, -2.63, -4.08, -5.05, -4.27, -5.93
10.97, 10.95, 12.71, 11.62, 11.58, 14.24, 14.79, 14.24, 13.16, 12.71, 10.89, 11.28, 13.04, 13.27, 10.45, 9.05, 8.37, 8.98, 9.33, 9.3, 9.52, 8.26, 9.89, 10.31, 8.17, 7.82, 9.71, 9.55, 9.35, 7.84, 7.83, 6.25, 7.58, 7.87, 7.01, 6.19, 5.32, 4.24, 3.17, 3.71, 1.28, 0.7, 0.44, -0.76, -2.32, -1.54, 0.08, -0.63, 0.45, 1.73, 4.94, 5.87, 4.63, 4.67, 5.45, 5.16, 5.93, 5.06, 3.33, 4.13, 3.26, 2.12, 4.19, 4.54, 3.32, 2.77, 1.16, 1.71, -0.16, -0.42, -1.15, -1.24, -1.55, -3.44, -3.58, -5.76, -5.01, -4.64, -4.35
10.92, 12.74, 12.58, 12.07, 11.58, 12.98, 13.9, 14.11, 13.48, 14.72, 14.13, 13.86, 13.45, 13.32, 11.76, 10.14, 9.38, 9.59, 9.62, 7.82, 8.67, 9.45, 11.37, 10.74, 9.47, 9.24, 10.34, 8.74, 10.47, 10.37, 9.15, 6.24, 5.74, 6.46, 6.87, 7.08, 6.44, 4.16, 5.44, 4.57, 3.11, 1.95, 2.28, 0.22, -1.11, -2.47, -2.73, -1.68, -0.13, 0.8, 2.47, 4.17, 4.43, 4.88, 5.13, 5.46, 7.57, 5.94, 3.52, 3.6, 2.96, 0.67, 1.17, 1.75, 3.54, 1.28, -0.49, -0.43, 1.15, 0.86, -0.06, -0.57, -0.03, -1.94, -1.69, -3.99, -4.33, -4.86, -4.58
11.07, 11.84, 12.11, 11.85, 13.55, 11.69, 12.4, 14.36, 15.68, 13.68, 14.27, 12.4, 13.32, 13.49, 12.62, 10.47, 9.95, 11.38, 11.3, 9.82, 9.78, 7.93, 9.94, 10.19, 10.34, 11.59, 10.46, 10.01, 12.1, 10.01, 9.65, 7.95, 6.91, 6.66, 6.67, 8.46, 6.87, 6.22, 5.83, 5.22, 3.14, 2.46, 2.35, -0.16, -1.18, -0.97, -1.93, -1.23, -0.05, 0.54, 1.85, 3.01, 5.27, 3.08, 4.45, 6.25, 7.65, 6.26, 5.24, 3.03, 2.05, -0.45, 0.8, 0.11, 2.58, 1.82, 0.61, 0.6, 0.88, 0.6, 0.23, 0.74, 0.19, -1.08, -2.11, -2.6, -3.52, -4.24, -2.97
9.85, 10.95, 12.61, 12.59, 12.82, 12.51, 12.48, 13.84, 13.12, 13.17, 12.28, 11.53, 11.11, 12.19, 13.84, 12.14, 11.04, 9.54, 11.93, 12.04, 10.52, 10.45, 8.27, 9.39, 9.71, 10.88, 10.68, 10.35, 11.39, 11.9, 11.25, 7.79, 7.2, 7.5, 6.18, 5.81, 5.98, 5.27, 6.15, 6.08, 2.88, 2.57, 1.78, 0.81, -0.2, -0.63, -2.49, -1.41, -1.3, 0.58, 0.78, 1.81, 4.16, 4.21, 4.36, 5.31, 6.74, 5.81, 6.51, 3.32, 2.6, -0.5, 1.63, 0.21, -0.24, -0.58, 1.93, 1.5, 1.22, 2.4, 0.65, 0.62, 0.58, 0.76, -1.55, -3.41, -2.97, -4.15, -3.2
9.84, 10.05, 12.56, 14.03, 14.23, 14.14, 13.31, 12.68, 13.55, 13.36, 12.82, 12.19, 12.18, 12.38, 12.12, 12.06, 11.47, 9.87, 10.83, 10.79, 10.04, 8.61, 8.52, 8.75, 9, 11.84, 11.34, 9.47, 11.31, 10.16, 9.78, 8.75, 8.38, 9.11, 7.71, 6.75, 6.53, 7.6, 6.53, 6.94, 4.78, 3.2, 2.91, 0.23, -0.36, -0.1, -1.56, -0.94, -0.9, 0.59, 2.43, 3.75, 4.01, 3.84, 4.1, 5.58, 6.14, 4.13, 5.92, 5.72, 4.91, 2.41, 2.05, 3.12, 1.24, 0.45, 1.53, 3.08, 2.36, 2.55, 1.65, 1.03, 2.17, 1.08, -0.55, -0.07, 0.34, -1.91, -2.68
9.73, 9.12, 10.85, 12.44, 13.23, 13.64, 13.51, 13.39, 12.32, 12.68, 11.26, 11.75, 11.38, 12.24, 13.3, 11.33, 11.04, 10.46, 10.75, 11.24, 10.7, 8.98, 8.68, 6.92, 7.8, 11.56, 11.41, 10.19, 11.31, 12.34, 10.98, 9.94, 9.45, 7.82, 8.99, 6.97, 7.45, 9.38, 9.04, 7.53, 5.98, 4.77, 5.08, 2.45, 2.21, 1.02, 1.11, 0.41, -1.16, 1.17, 1.94, 3.1, 3.87, 3.54, 3.77, 5.41, 5.33, 5.25, 5.62, 6.69, 6.06, 4.11, 2.38, 2.83, 1.89, 1.36, 1.45, 2.21, 4.01, 3.44, 2.93, 1.93, 2.03, 0.27, -0.2, -0.87, -0.52, -1.18, -2.88
10.06, 8.62, 9.81, 11.13, 11.33, 12.29, 10.93, 12.27, 12.32, 12.8, 10.16, 11.66, 12.63, 11.68, 12.67, 10.59, 11.72, 9.9, 10.4, 9.97, 10.1, 8.21, 8.44, 7.2, 9.21, 10.46, 11.15, 10.87, 11.42, 10.8, 11.09, 11.36, 11.26, 9.09, 9.82, 7.59, 6.04, 8.23, 8.44, 9.25, 7.44, 6.21, 5.12, 3.81, 3.22, 0.57, 0.74, -1.08, -0.6, -0.58, 0.08, 2.28, 1.46, 1.33, 2.77, 3.52, 4.42, 4.86, 6.18, 6.06, 7.18, 5.65, 4.01, 5.16, 3.39, 2.19, 2.61, 2.35, 1.84, 1.14, 2.44, 2.7, 2.68, 1.32, 0.59, 0.98, -0.15, -0.29, -1.56
10.66, 9.62, 8.08, 9.52, 9.95, 12.52, 11.71, 11.99, 14.12, 13.42, 11.62, 11.64, 11.66, 11.89, 12.28, 11.37, 11.55, 10.49, 10.17, 10.06, 9.34, 8.93, 8.41, 6.15, 6.94, 8.8, 11.17, 11.74, 10.89, 11.73, 13.11, 12.22, 11.87, 8.78, 9.32, 9.16, 8.7, 9.18, 8.81, 8.79, 7.87, 7.05, 6.15, 4.49, 4.07, 3.24, 1.19, -0.17, -0.48, 0.14, 0.24, 1.36, 2.97, 3.77, 3.47, 2.86, 3.64, 4.43, 5.75, 7.48, 7.34, 5.08, 4.56, 4.85, 4.72, 4.66, 4.34, 3.35, 1.33, 2.07, 3.07, 4.2, 3.37, 0.53, 0.54, 1.49, 0.86, -0.79, 0.45
10.65, 10.58, 9.57, 10.94, 9.11, 10.99, 11.33, 9.98, 12.04, 10.77, 11.24, 12.3, 11.87, 10.17, 11.77, 12.89, 13.21, 11.48, 10.76, 10.28, 8.26, 8.19, 6.35, 6.04, 5.41, 5.88, 8.95, 11.41, 11.92, 11.61, 13.84, 12.94, 13.33, 9.09, 10.6, 9.87, 9.39, 9.41, 8.85, 10.07, 10.24, 8.34, 9.05, 6.81, 5.37, 3.18, 1.06, 0.39, -0.16, -1.24, -0.84, -0.25, 1.36, 2.56, 2.45, 1.91, 1.15, 2.41, 4.29, 5.85, 6.03, 5.55, 6.32, 5.46, 3.82, 4.65, 4.16, 4.11, 2.71, 2.02, 3.09, 3.32, 1.9, 0.54, 1.21, -0.09, 0.49, -1.36, -0.48
10.26, 10.98, 9.3, 10.79, 9.95, 10.48, 10.83, 10.63, 12.06, 12.29, 11.21, 13.73, 13.58, 11.98, 13.04, 11.96, 13.22, 13.67, 13.03, 13.47, 10.22, 9.01, 7.76, 7.86, 6.6, 6.25, 6.66, 9.76, 11.24, 11.5, 12.77, 11.41, 13.38, 11.15, 10.69, 10.49, 11.65, 10.35, 9.65, 11.13, 10.59, 8.06, 9.53, 7.87, 6.86, 4.44, 2.26, 2.36, 0.8, -0.63, -1.49, -0.51, -1.34, 2.5, 0.69, 2.46, 0.7, 2.21, 2.08, 4.6, 6.04, 4.15, 3.92, 5.03, 2.44, 1.9, 3.32, 3.79, 3.24, 3.25, 1.77, 2.26, 2.11, 1.07, 1.83, 0.79, 1.11, 0.59, -0.51
10.65, 9.75, 11.43, 11.44, 10.58, 10.61, 11.57, 9.82, 10.93, 12.12, 11.83, 11.26, 12.36, 12.2, 13.4, 10.7, 11.84, 12.77, 14.25, 14.25, 11.45, 9.29, 10.18, 8.79, 7.59, 6.44, 6.65, 7.15, 7.78, 9.64, 11.68, 11.54, 12.51, 12.45, 12.39, 11.36, 12.61, 11.6, 10.7, 10.6, 11.49, 8.94, 9.47, 8.78, 8.05, 6.24, 3.55, 2.81, 1.42, 0.39, -0.44, -1.91, -1.78, -0.54, 0.41, -0.15, 0.28, 1.43, 3.31, 3.96, 5.5, 4.95, 6.25, 4.22, 2.88, 2.66, 2.25, 3.07, 1.88, 1.03, 3.05, 2.59, 2.37, 2, 1.86, 1.42, 1.18, -0.03, -0.78
9.13, 9.35, 10.39, 11.51, 11.69, 10.65, 11.11, 10.47, 11.58, 13.1, 11.84, 11.9, 12.11, 13.9, 12.63, 12.26, 12.39, 12.57, 13.42, 14.96, 11.67, 10.61, 10.79, 10.09, 8.23, 8.67, 8.11, 6.84, 7.3, 8.64, 10.37, 10.83, 11.8, 10.24, 11.74, 10.55, 13.55, 10.78, 12.26, 11.01, 10.4, 9.54, 9.7, 9.59, 10.73, 8.71, 6.23, 3.79, 4.13, 2.46, 2.32, 0.32, 0.3, 1.65, -0.04, -0.3, 1.44, 1.24, 2.74, 3.38, 4.37, 5.08, 5.82, 3.29, 3.23, 2.32, 2.85, 3.49, 0.74, 1.54, 3.19, 2.89, 2.05, 0.33, 1.55, 2.35, 2.7, 2.16, 1.18
9.94, 10.73, 10.79, 10.34, 10.09, 10.77, 10.92, 10.39, 9.06, 11.19, 11.51, 11.71, 12.97, 13.48, 13.33, 14.71, 13.47, 13.84, 15.28, 14.67, 13.13, 12.26, 12.83, 11.13, 9.14, 7.96, 8.26, 8.21, 6.58, 7.61, 10.19, 12.09, 12.07, 11.49, 12.18, 10.69, 10.47, 11.19, 10.72, 12.36, 11.62, 10.55, 10.19, 9.15, 8.75, 8.73, 9.18, 6.3, 5.52, 3.61, 3.37, 3.67, 2.74, 1.95, 1.12, -0.9, 0.19, 0.6, 3.14, 4.07, 2.6, 1.9, 4.52, 3.87, 2.08, 1.88, 3.94, 4.06, 1.39, 2.1, 2.38, 2.65, 2.55, 2.27, 1.08, 1.9, 4.27, 2.89, 2.92
9.96, 9.82, 10.51, 10.72, 11.02, 11.95, 11.75, 11.03, 9.98, 8.84, 10.19, 10.93, 12.24, 12.87, 13.12, 13.97, 13.72, 15.25, 15.26, 14.94, 14.76, 13.51, 13.16, 13.4, 11.83, 10.96, 10.09, 8.74, 6.43, 8.84, 10.95, 12.35, 12.66, 11.53, 10.59, 10.63, 10.81, 11.32, 9.12, 10.57, 9.57, 9.98, 9.95, 9.04, 9.91, 10.94, 10.05, 8.39, 5.19, 3.82, 4.25, 2.51, 4.02, 3.65, 2.52, 1.09, 2.18, 0.17, 1.22, 2.44, 2.41, 1.61, 2.43, 3.16, 2.25, 2.72, 3.92, 2.99, 1.53, 2.07, 3.08, 2.88, 2.68, 0.52, 1.71, 1.36, 2.78, 2.82, 2.87
10.53, 10.72, 10.8, 11.03, 11.08, 9.66, 9.26, 10.16, 9.37, 9.11, 9.6, 10.35, 11.4, 10.19, 11.35, 11.11, 12.26, 14.53, 14.94, 14.5, 14.29, 13.9, 13.13, 13.26, 12.25, 12.58, 11.08, 9.58, 8.37, 9, 8.65, 10.92, 11.79, 11.73, 10.12, 10.88, 12.8, 12.28, 10.48, 10.44, 10.44, 11.19, 9.96, 11.25, 9.85, 10.22, 10.71, 9.09, 5.79, 4.81, 4.53, 3.18, 1.67, 3.48, 4.84, 1.67, 1.05, 0.8, 1.68, 2.31, 1.28, 1.33, 1.87, 2.5, 2.22, 2.47, 3.19, 3.09, 2.7, 0.69, 1.13, 2, 3.26, 1.14, 1.72, 0.92, 0.65, 1.74, 0.38
9.91, 10.31, 10.76, 11.37, 11.12, 10.03, 10.19, 10.99, 10.13, 9.55, 8.96, 10.41, 12.57, 12.22, 12.15, 11.32, 11.64, 11.9, 13.01, 13.75, 13.35, 12.46, 11.85, 14.54, 14.18, 13.41, 13.01, 12.07, 10.18, 9.97, 9.33, 10.07, 9.53, 9.39, 9.73, 10.68, 12.03, 11.46, 10.75, 10.75, 11.76, 11.52, 11.61, 10.76, 11.12, 10.67, 9.3, 9.24, 5.86, 4.73, 5.2, 3.58, 2.21, 2.98, 3.81, 3.24, 3.34, 0.81, 1.84, 0.85, 0.23, 0, 0.52, 1.52, 3.04, 2.11, 3.57, 3.32, 2.65, 1.66, 1.87, 1.82, 2.15, 2.45, 1.19, 0.84, 0.17, -0.37, -0.02
9.9, 10.04, 12.14, 11.09, 11.22, 11.89, 12.03, 10.92, 11.24, 10.38, 8.59, 9.2, 11.01, 11.31, 11.27, 13.28, 10.78, 11.53, 12.15, 14.75, 15.73, 15.6, 13.8, 14.38, 13.19, 11.8, 12.43, 11.42, 10.8, 10.36, 9.82, 9.94, 11.59, 11.94, 10.94, 10.79, 10.07, 10.86, 11.27, 9.47, 10.95, 10.63, 11.36, 12.12, 11.94, 10.56, 9.93, 10.37, 9.91, 6.31, 5.76, 5.29, 3.74, 3.47, 4.82, 2.53, 3.04, 3.17, 3.6, 1.31, 0.87, 0.3, 0.57, 0.68, 2.9, 3.89, 3.73, 3.7, 3.18, 2.53, 3.23, 2.58, 2.35, 0.74, -0.88, -1.6, -0.66, -0.52, -0.6
9.88, 8.04, 10.09, 10.59, 11.11, 11.07, 11.12, 11.47, 11.18, 11.9, 10.3, 9.74, 10.4, 11.83, 11.11, 11.44, 11.34, 11.4, 13.62, 15.83, 16.28, 14.1, 15.26, 15.68, 13.27, 12.85, 12.93, 12.21, 11.51, 10.93, 9.91, 8.77, 8.25, 11.09, 9.36, 11.27, 10.93, 10.8, 11.04, 10.02, 12.27, 10.08, 12.4, 13.48, 13.5, 12.02, 10.46, 9.91, 9.93, 8.34, 7.14, 4.44, 4.96, 4.53, 5.1, 3.24, 3.61, 3.9, 4.51, 2.89, 1.35, 0.81, 0.84, 0.87, 1.75, 2.75, 3.57, 1.73, 0.82, 1.39, 1.88, 2.3, 2.33, 2.37, 2.56, 0.09, -1.74, -3.11, -0.39
10.71, 9.02, 9.3, 9.13, 11.78, 13, 10.98, 11.47, 10.45, 9.67, 10.21, 11.95, 9.37, 11.66, 11.27, 12.75, 12, 11.56, 14, 16.21, 16.3, 16.64, 14.82, 15.22, 14.24, 14.14, 13.7, 13.09, 12.3, 12.21, 11.71, 10.32, 7.94, 9.26, 11.07, 13.15, 12.64, 11.75, 10.52, 8.86, 10.42, 9.05, 9.88, 12.24, 12.88, 12.23, 11.7, 10.6, 9.99, 9.22, 8.2, 6.15, 5.56, 5.03, 4.66, 2.08, 0.9, 1.44, 2.98, 2.94, 2.72, 1.51, 2.05, 1.61, 2.54, 2.94, 1.87, 2.13, 1.55, 1.55, 1.69, 2.03, 1.28, 1.82, 2.15, 0.97, -0.37, -1.78, -0.84
10.1, 8.91, 9.96, 9.52, 10.72, 11.04, 9.46, 9.23, 9.29, 10.34, 9.48, 12.57, 10.35, 11.54, 10.99, 11.87, 11.85, 11.44, 12.83, 13.88, 14.7, 15.64, 14.16, 14.95, 15.32, 14.73, 15.08, 13.82, 13.07, 11.27, 11.45, 12.82, 11.72, 12.22, 13.48, 13.32, 11.85, 11.55, 11.14, 10.06, 10.25, 9.97, 9.79, 11.4, 10.72, 11.49, 10.01, 10.09, 9.92, 9.29, 8.76, 9.44, 6.27, 5.64, 5.22, 2.39, 1.15, 1.37, 1.14, 2.86, 2.77, 3.53, 2.21, 0.23, -0.1, 1.37, 1.93, 1.6, 0.93, -0.25, 0.74, 1.82, 2.15, 1.99, 2.11, 2.28, 1.63, -0.06, -1.91
